# .PCD v0.7 - Point Cloud Data file format
VERSION 0.7
FIELDS x y z intensity
SIZE 4 4 4 4
TYPE F F F F
COUNT 1 1 1 1
WIDTH 1379
HEIGHT 1
VIEWPOINT 0 0 0 1 0 0 0
POINTS 1379
DATA ascii
9.0346727 3.6213427 0.12468201 0
1.426049 -28.980139 -1.3428341 0
1.3052208 -29.035637 -1.3468741 0
1.1583297 -29.731686 -1.3244736 0
0.95979095 -29.856936 -1.3336531 0
7.7319593 -1.2600418 -0.85864818 0
7.5424194 -2.0503457 -0.8712346 0
7.15907 -2.4528947 -0.93213123 0
7.3033524 -2.6620841 -0.93819422 0
7.2939386 -2.9966102 -0.93047756 0
7.1003027 -3.4529047 -0.94771051 0
6.9735689 -3.933147 -0.94522458 0
6.9496098 -4.1918449 -0.96678686 0
6.6514902 -4.7364483 -0.99642766 0
6.6771545 -5.0279698 -0.98249805 0
6.7101097 -5.3641238 -0.9553405 0
6.2058687 -6.6208024 -0.94085145 0
6.1243687 -6.9418335 -0.90109944 0
6.039465 -7.3391771 -0.86264682 0
5.9566994 -7.7282796 -0.83284497 0
5.8700438 -8.1137486 -0.81013954 0
5.8339243 -8.476368 -0.89116144 0
5.7605133 -8.8469172 -1.0662484 0
5.6131411 -9.3374777 -1.0850323 0
5.5313702 -9.6626358 -0.90782291 0
5.4405375 -10.032972 -0.8225913 0
5.3589134 -10.328172 -0.90775168 0
5.6179562 -10.77204 -0.95546913 0
5.3028193 -11.681054 -1.0293107 0
5.0729933 -11.901275 -1.0234756 0
5.1540194 -12.47368 -0.91162479 0
2.9434335 -22.524666 -1.1718791 0
6.5661602 -5.1365466 -0.44087449 0
6.6759167 -5.4168386 -0.45299914 0
6.6270218 -5.797389 -0.45957783 0
6.4717293 -6.2010779 -0.4616006 0
6.3423576 -6.6173525 -0.57147521 0
6.1299 -6.9456301 -0.61431223 0
6.0493593 -7.3337612 -0.58858502 0
5.9650517 -7.7282124 -0.5614835 0
5.8908291 -8.1242876 -0.54519093 0
5.8185492 -8.5235453 -0.61707419 0
5.7524405 -8.9103422 -0.62376231 0
5.6838751 -9.3057709 -0.63203824 0
5.6042423 -9.6596527 -0.58423209 0
5.5521765 -10.055895 -0.57021427 0
5.3637972 -10.351692 -0.54547232 0
5.1380701 -12.485205 -0.57200944 0
4.232523 -15.500276 -0.4541454 0
8.9712 5.2144232 -0.33039787 0
8.7990093 4.4451981 -0.35095304 0
8.8126497 3.5617723 -0.34987253 0
6.4144707 -6.7444186 -0.38707966 0
9.0812302 5.7559347 0.13108782 0
9.0375681 5.4862289 0.13775764 0
8.9533443 5.0003052 0.1096434 0
8.8656931 4.7024317 0.10951383 0
8.9728146 4.3452954 0.10678937 0
8.9136629 3.9047642 0.11865221 0
2.6533535 -20.551697 -1.2205775 0
2.4302843 -21.287134 -1.2090842 0
0.81541085 -28.857388 -1.3322597 0
0.73443484 -28.899792 -1.335557 0
7.0023727 -2.2672887 -0.92374682 0
6.8058147 -3.0551443 -0.93456858 0
6.5942659 -3.4824281 -0.96792519 0
6.7397757 -3.7321992 -0.97849184 0
6.3963327 -4.2665777 -0.97828686 0
6.5351772 -4.5073166 -0.98824221 0
6.354003 -4.9277577 -0.9276225 0
6.4951429 -5.2351131 -0.92250562 0
6.0710459 -6.2521782 -0.93328452 0
6.1863747 -6.4422503 -0.94817185 0
5.4305801 -8.794795 -0.98529088 0
5.5193443 -9.2941542 -1.0778145 0
5.2866497 -9.6197538 -1.0156308 0
5.2816677 -10.046516 -0.99963611 0
5.0975542 -10.393749 -0.97234869 0
5.0123358 -10.771547 -0.92377484 0
4.8144398 -11.138141 -0.93703991 0
4.7363729 -11.952436 -0.97196329 0
4.6633968 -12.251769 -0.94390267 0
2.264581 -22.283794 -1.1361864 0
6.3397007 -4.7204628 -0.41746005 0
6.4452295 -4.9287806 -0.42740488 0
6.1395893 -5.4937887 -0.42717022 0
6.235774 -5.7150068 -0.43524024 0
5.6141319 -7.3957143 -0.49741977 0
5.5657911 -7.6327014 -0.50319242 0
5.4914236 -7.9218111 -0.50998276 0
5.4346704 -9.7872677 -0.58153594 0
5.2714348 -10.031344 -0.58007759 0
5.1252851 -10.432523 -0.59029722 0
5.0333385 -10.761151 -0.58328307 0
4.8245487 -11.146961 -0.59240139 0
4.6942148 -11.360796 -0.4914349 0
4.666007 -12.241425 -0.62592524 0
4.0752888 -15.666464 -0.46393588 0
3.8677773 -15.749236 -0.46367973 0
8.8047562 5.4672146 -0.3381086 0
8.8955879 5.3094211 -0.33284417 0
8.6432161 4.6733675 -0.35786614 0
8.7085648 4.5250063 -0.35218585 0
6.2038364 -4.8316813 -0.39240453 0
4.6127663 -12.396601 -0.39157072 0
4.4508162 -12.544103 -0.39321145 0
8.8601055 6.6251016 0.1130804 0
8.9042053 6.5524321 0.11435331 0
8.8541431 5.8533373 0.12089841 0
8.8503351 5.6739655 0.12172426 0
8.7461538 5.0505857 0.11067625 0
8.6931314 4.8125463 0.10516759 0
2.4952495 -20.549738 -1.2179704 0
2.2791216 -21.336599 -1.2123039 0
6.7933159 -2.0877757 -0.90703386 0
6.3606386 -2.9759941 -0.92699343 0
6.3623219 -3.2395978 -0.94154501 0
6.0198927 -3.8202333 -0.94248885 0
6.1703463 -4.0209203 -0.95338994 0
6.0316715 -4.5215282 -0.93876189 0
5.9890919 -4.8513184 -0.92629153 0
5.8363647 -5.2604427 -0.9239096 0
5.7799063 -5.6325016 -0.90583903 0
5.7325268 -6.0241308 -0.87185407 0
5.5930338 -6.4092026 -0.83883971 0
5.4978123 -6.8027697 -0.82139087 0
5.4046822 -7.1909766 -0.81389707 0
5.3076296 -7.5735483 -0.81325644 0
5.2127714 -7.9629307 -0.8218075 0
5.1097832 -8.3264656 -0.82392991 0
5.0054674 -8.7424603 -0.83714265 0
4.9469748 -8.9817886 -0.85156953 0
5.0330658 -9.7250128 -1.049288 0
4.8277369 -9.8959417 -1.0413309 0
4.7635145 -10.459375 -0.99952286 0
4.6269455 -10.658505 -1.0346912 0
4.5153818 -11.259406 -0.91178429 0
4.6163368 -11.350111 -0.94173634 0
4.2402296 -11.957443 -0.88841468 0
4.424777 -12.136076 -0.95424622 0
2.3791964 -20.107796 -0.89678526 0
1.9851305 -22.292202 -1.1345299 0
7.197835 0.93095541 -0.52949297 0
6.5667582 -2.2889514 -0.517452 0
6.468771 -2.5278516 -0.48589388 0
6.3462276 -2.900815 -0.43975875 0
6.3043795 -3.085875 -0.41883388 0
6.0004225 -4.575676 -0.65302414 0
5.9754257 -4.8554864 -0.64017314 0
5.8810558 -5.266561 -0.61649716 0
5.7897959 -5.639998 -0.60883588 0
5.6947632 -6.0284023 -0.58812875 0
5.6149397 -6.4166126 -0.57127762 0
5.5414934 -6.8081379 -0.56175905 0
5.4621677 -7.1907368 -0.56467408 0
5.3546734 -7.5832229 -0.58486581 0
5.2979126 -7.9949722 -0.58313549 0
5.2349787 -8.3493233 -0.57834375 0
5.1274738 -8.7652102 -0.58572632 0
5.0450583 -9.0057621 -0.60085857 0
4.6276722 -10.449482 -0.55418777 0
4.8058653 -10.564949 -0.58883059 0
4.4403758 -11.238105 -0.57862008 0
4.6157055 -11.351536 -0.61926121 0
4.3006029 -12.00621 -0.61011928 0
4.4689159 -12.113094 -0.6487909 0
3.9051471 -13.498525 -0.47976971 0
3.789273 -13.648782 -0.49036279 0
3.6882555 -14.256198 -0.47832918 0
3.452148 -15.772701 -0.4501811 0
7.9738836 4.6873417 -0.2723546 0
7.7213516 2.8030877 -0.27667221 0
7.71031 2.7390513 -0.27279019 0
6.7052889 -0.95984966 -0.35178301 0
5.9324389 -4.39888 -0.12112804 0
4.2111211 -12.69195 -0.38979647 0
3.971822 -12.839132 -0.38793892 0
8.5534973 6.0243101 0.088890314 0
8.521369 5.7860808 0.095081851 0
8.1825485 4.5967298 0.10745775 0
5.917428 -4.2923789 0.14182459 0
5.8891201 -2.5690737 -0.92111713 0
6.0521011 -2.7792153 -0.92810202 0
5.8331079 -3.5902667 -0.9385727 0
5.6937103 -3.9547319 -0.92241275 0
5.6770887 -4.3581076 -0.88510013 0
5.4773178 -4.7493343 -0.93142813 0
5.5382566 -5.1180959 -0.92327332 0
4.4491663 -9.9718094 -0.98735315 0
4.3357601 -10.217617 -0.96315718 0
4.2353988 -10.747688 -0.992535 0
4.1175032 -11.001267 -0.95919728 0
4.0413914 -11.828956 -0.8305341 0
2.2341707 -20.178997 -0.90275687 0
1.5753648 -22.258165 -1.1279951 0
0.4384129 -27.573517 -1.0194149 0
0.229635 -27.583813 -1.0208002 0
-0.26020408 -29.459908 -1.1654117 0
7.253438 2.8582721 -0.52886319 0
7.1600609 2.8274889 -0.52149731 0
7.0199003 2.0500917 -0.54054934 0
6.9353714 1.1073188 -0.53103262 0
6.4044008 -0.4887929 -0.50064737 0
6.3335028 -0.65988898 -0.47853008 0
6.220789 -1.269628 -0.51413006 0
6.1443672 -1.444698 -0.4909794 0
5.8691998 -3.2090478 -0.6030823 0
5.6519842 -4.1442313 -0.68164039 0
5.6497841 -4.3726592 -0.56900305 0
4.3500662 -10.299924 -0.53327715 0
4.1881638 -10.550792 -0.41428337 0
4.1528635 -11.098942 -0.5119046 0
3.9838691 -11.306505 -0.41642591 0
3.9580004 -11.788073 -0.57063651 0
3.5592065 -13.758959 -0.49252194 0
3.3692114 -14.503338 -0.4904893 0
3.2299018 -15.910013 -0.45708686 0
3.0347376 -16.051584 -0.4663803 0
2.7721918 -16.412897 -0.4983581 0
7.726285 4.6817079 -0.26468766 0
7.5413866 3.9014921 -0.28319082 0
7.3706865 2.9705801 -0.27633801 0
6.619709 -0.59790277 -0.37549874 0
6.5887222 -0.90817201 -0.34927583 0
5.7074318 -4.3316774 -0.16139451 0
3.7236271 -12.992981 -0.38889593 0
3.4885271 -13.129628 -0.39014065 0
8.208312 6.4519825 0.12345063 0
8.0406475 5.643229 0.10340396 0
5.6074295 -4.1087427 0.14720213 0
5.6969614 -4.284214 0.15089124 0
5.735465 -2.4674788 -0.90479344 0
5.5916109 -2.5625443 -0.86365706 0
5.4613857 -3.2495027 -0.92424059 0
5.4809742 -3.4559989 -0.91266483 0
5.1770973 -4.0199609 -0.90112269 0
5.3028135 -4.2421227 -0.89728516 0
5.1893015 -4.7404823 -0.91040283 0
3.819525 -9.8927498 -0.86706299 0
3.9761903 -10.012514 -0.91656369 0
3.7504869 -10.788617 -0.91994601 0
2.0340548 -18.08639 -0.93384612 0
1.9484432 -18.094841 -0.93374968 0
1.7736561 -18.849869 -0.92737901 0
1.6425278 -20.273884 -1.1774487 0
1.4210961 -21.034142 -1.1687651 0
1.3665292 -22.143206 -1.1143162 0
0.12390351 -27.659466 -1.0269306 0
-0.43283296 -29.399294 -1.1617664 0
-0.56606984 -29.470324 -1.1679524 0
6.919775 3.0004272 -0.52283579 0
7.0998707 2.8678293 -0.52151787 0
6.7330742 2.2242084 -0.53950548 0
6.812376 2.025722 -0.54677975 0
6.5430088 1.4992074 -0.5457527 0
6.7009954 1.2911253 -0.53522444 0
6.2598047 -0.86323971 -0.45339358 0
6.0238533 -1.1886793 -0.50350058 0
6.0214434 -1.5781208 -0.49756345 0
5.7885666 -1.9867476 -0.50423503 0
5.6251678 -2.3571362 -0.49799675 0
5.6241808 -2.5817485 -0.65845776 0
5.5392561 -3.1760535 -0.57934922 0
5.4830713 -3.3778377 -0.71158278 0
5.4279032 -3.8581901 -0.59345442 0
5.3163881 -4.2743769 -0.58315963 0
3.9747927 -10.011477 -0.62077916 0
3.9580083 -10.69299 -0.41133669 0
3.7542515 -10.83156 -0.51320344 0
3.7578719 -11.455464 -0.41447848 0
3.5860522 -11.584469 -0.53148961 0
3.175504 -13.72728 -0.47456169 0
2.9654782 -13.908073 -0.48717362 0
2.9308689 -14.493398 -0.47263622 0
2.7615826 -14.655384 -0.48436755 0
2.6638138 -16.58448 -0.51444745 0
2.5908167 -16.719671 -0.52761376 0
7.2396507 4.9303713 -0.26397279 0
7.4361124 4.8350844 -0.26438817 0
7.0794096 4.149507 -0.28313568 0
7.2539854 4.0588298 -0.28318584 0
7.0295439 3.3869696 -0.29105955 0
7.046092 3.1913805 -0.28035051 0
6.5557518 1.4630375 -0.38267329 0
6.5847836 1.1857852 -0.36325884 0
6.4970026 0.87209523 -0.35151193 0
6.3855839 0.4102118 -0.37748352 0
6.3642778 0.14140177 -0.35581684 0
5.658247 -2.4341493 -0.15235072 0
5.460268 -3.2154155 -0.17054714 0
5.313592 -3.4200978 -0.29796207 0
5.4712725 -3.8711777 -0.26985094 0
5.351696 -4.2568498 -0.13837826 0
3.5314553 -11.595568 -0.36489373 0
3.242101 -13.246161 -0.39047241 0
5.6596174 -2.3614488 0.14308584 0
5.5146151 -3.132422 0.12973513 0
5.3327131 -2.339601 -0.84559029 0
5.3262978 -2.5926542 -0.87123048 0
5.1991177 -3.0254579 -0.90484446 0
5.2773657 -3.2776113 -0.86007059 0
4.997736 -3.781352 -0.88583267 0
4.7060213 -4.3413115 -0.87958741 0
4.8801861 -4.4819336 -0.88910496 0
3.6989684 -9.8158779 -0.83230901 0
3.453419 -10.576319 -0.82962537 0
3.5979874 -10.673265 -0.87215018 0
1.8424203 -18.138515 -0.93749076 0
1.6237366 -18.898174 -0.93103689 0
1.2350066 -20.27869 -1.1755952 0
1.0641711 -21.05184 -1.1685151 0
1.0840828 -21.387859 -1.0296946 0
0.76793599 -21.861506 -1.0825663 0
0.781111 -22.075129 -1.106344 0
-0.094921827 -25.551321 -1.0748186 0
-0.32092261 -26.325348 -1.0613806 0
-0.7776711 -29.299442 -1.1564112 0
-0.71832156 -29.464182 -1.1684798 0
6.4540901 3.481719 -0.53947276 0
6.6101484 3.2722874 -0.52960664 0
6.2859545 2.7000413 -0.55674297 0
6.4207487 2.4366541 -0.57795417 0
6.4563923 1.9183854 -0.57815182 0
5.6581964 -0.74547637 -0.60868728 0
5.6621809 -1.1708044 -0.59486842 0
5.4553156 -1.4416316 -0.68766338 0
5.4173307 -1.928912 -0.56121618 0
5.2843857 -2.2845011 -0.60327983 0
5.1804609 -2.6290226 -0.60082978 0
5.1455078 -3.0981827 -0.59892339 0
5.1618118 -3.4059496 -0.59312266 0
3.6074593 -9.7690926 -0.55918312 0
3.3919947 -10.547107 -0.56678677 0
3.4902785 -10.93353 -0.44292283 0
3.228121 -11.27467 -0.49608541 0
3.1677499 -11.570729 -0.46533021 0
3.0436537 -11.864799 -0.41295281 0
2.7277656 -14.004544 -0.4906503 0
2.4834917 -14.312411 -0.51834971 0
2.4997272 -14.725827 -0.49496892 0
2.2733281 -15.023836 -0.51078314 0
7.066946 5.1527052 -0.27131611 0
6.862999 4.3491983 -0.29816717 0
6.7578802 4.083231 -0.32473519 0
6.6542158 3.2405863 -0.27345362 0
6.0979853 0.43491697 -0.36310902 0
5.3084373 -1.9650452 -0.26684818 0
5.2803755 -2.3104925 -0.15615937 0
5.1014414 -2.7674336 -0.27452931 0
5.12885 -3.1266818 -0.17680262 0
5.2284756 -3.3771901 -0.25169781 0
3.2775791 -11.727817 -0.35956949 0
3.0478492 -11.848807 -0.35788721 0
2.9391682 -13.362322 -0.38921705 0
2.7165756 -13.423291 -0.38691482 0
5.4796543 -2.2352924 0.14590742 0
5.2719507 -2.8469453 0.12875949 0
5.2542562 -3.0733724 0.13133954 0
-0.93553567 -27.396812 -1.2232829 0
-1.1642716 -28.17856 -1.2083182 0
4.861887 -1.87901 -0.83287793 0
5.0119734 -2.0865407 -0.82552022 0
4.8201494 -2.6366053 -0.89040846 0
4.8430204 -2.9160681 -0.8328346 0
4.641923 -3.4238358 -0.89841443 0
4.6556654 -3.5570679 -0.82464319 0
4.5020571 -4.1864414 -0.87046528 0
1.203716 -19.131884 -1.1841763 0
1.0042655 -19.131649 -1.183838 0
0.95313621 -20.15357 -1.1604968 0
0.73290467 -20.954479 -1.1563804 0
0.49828553 -21.746712 -1.0706551 0
0.29729056 -21.84573 -1.0826633 0
-0.33743882 -25.546133 -1.0754042 0
-0.48964858 -26.274605 -1.058089 0
6.3662348 4.3206606 -0.60620952 0
6.4782791 4.1227455 -0.59429485 0
6.3098154 3.6176724 -0.5935334 0
6.3139639 3.3441186 -0.61254889 0
6.2729216 2.9318109 -0.57568318 0
6.0475597 2.6102276 -0.62264639 0
5.6318655 1.2054101 -0.60951775 0
5.6051617 0.97174108 -0.58223623 0
5.4758368 0.48918319 -0.58179343 0
5.3978205 0.13367569 -0.48763579 0
5.4078798 -0.14620912 -0.50392008 0
5.2707825 -0.63564372 -0.55405396 0
5.1258984 -1.0291383 -0.6269533 0
5.0869255 -1.3155066 -0.60148525 0
4.9193754 -1.8283366 -0.68035305 0
4.9643164 -2.1068954 -0.64587831 0
4.8012991 -2.5658536 -0.72225541 0
4.8402176 -2.9177947 -0.6677646 0
4.7501411 -3.1845756 -0.69416887 0
3.2761481 -9.5479641 -0.60603023 0
3.075722 -10.336206 -0.59577423 0
2.9455817 -11.253381 -0.41290113 0
2.9045644 -11.553736 -0.52552128 0
2.7594821 -11.940483 -0.54022932 0
2.5147343 -12.273825 -0.59609908 0
2.3918042 -12.493544 -0.56556439 0
2.2340286 -14.695346 -0.55555773 0
2.1500483 -15.201288 -0.52744114 0
2.0129054 -15.422643 -0.54906088 0
6.7458792 6.0600586 -0.31306359 0
6.6269865 5.2114019 -0.29670826 0
6.3584471 4.7690201 -0.35632482 0
6.5128937 4.4693856 -0.31738201 0
5.0224276 -1.1449715 -0.099070385 0
5.0589123 -1.3248619 -0.22531871 0
4.8419657 -1.8804659 -0.11453561 0
4.8845158 -2.1303425 -0.2151742 0
4.9162998 -3.0285435 -0.27414733 0
3.1802173 -9.6319008 -0.37921438 0
3.0217609 -9.7312975 -0.37930673 0
2.9750826 -10.388808 -0.3819584 0
2.7941935 -11.978932 -0.35882431 0
2.5756283 -12.214426 -0.3832998 0
2.3462191 -13.538432 -0.38813078 0
5.0891962 -1.2293628 0.1179122 0
4.8097782 -1.9007605 0.1044191 0
4.8726835 -2.0208344 0.10780367 0
-1.2350056 -27.354918 -1.2221791 0
-1.387727 -28.120417 -1.2053725 0
4.6830177 -1.673488 -0.8383683 0
4.3583927 -2.2137518 -0.87484598 0
4.5190835 -2.4146948 -0.86500788 0
4.1734734 -2.9927979 -0.88641894 0
4.3237314 -3.2298894 -0.85632026 0
4.1457767 -3.9476881 -0.85537827 0
2.2626193 -12.694438 -0.82479399 0
2.0820947 -12.979168 -0.88470298 0
1.8407748 -13.741135 -1.0652739 0
1.1317897 -16.582348 -1.1278162 0
0.49138403 -18.98159 -1.1634368 0
0.6759584 -19.12715 -1.1569738 0
0.34653664 -20.013227 -1.1134499 0
0.33925414 -20.190832 -1.0702957 0
0.15927601 -20.831083 -1.1427057 0
0.017025709 -21.958433 -1.0972522 0
6.0633125 4.5178785 -0.61051774 0
5.897233 3.7347341 -0.62835485 0
5.702343 2.9183216 -0.63768077 0
5.8421745 2.7419372 -0.62669986 0
5.3057089 1.2935728 -0.5967437 0
5.3594379 1.2329196 -0.59352183 0
5.1296902 0.51896238 -0.61186332 0
5.1802835 0.45381939 -0.60792017 0
4.9689436 -0.1386196 -0.65832102 0
5.0043659 -0.49937612 -0.6052286 0
4.8118362 -0.90777457 -0.70916921 0
4.7709036 -1.2559015 -0.59764355 0
4.6294613 -1.727324 -0.71390265 0
4.552186 -1.9645447 -0.58842933 0
4.4300189 -2.5919943 -0.75554407 0
4.5982685 -2.7250371 -0.75151634 0
4.0924015 -3.266994 -0.79930961 0
2.8207104 -9.443141 -0.54978746 0
2.6303935 -9.6838684 -0.56173533 0
2.617619 -10.195612 -0.55060077 0
2.4178319 -11.424106 -0.41024682 0
2.2466807 -12.178197 -0.41189072 0
2.292182 -12.649957 -0.57036394 0
2.0850699 -12.981773 -0.59339744 0
1.8554595 -13.341284 -0.64883322 0
6.5062904 6.5188971 -0.33319694 0
6.4232931 6.1230874 -0.34309119 0
6.3640423 5.712357 -0.35237235 0
6.1724234 4.9438453 -0.36298811 0
4.879488 -1.0931274 -0.23816621 0
4.8199034 -1.2046446 -0.23349811 0
4.778944 -1.8355643 -0.11405427 0
4.6047039 -2.0517473 -0.29685497 0
2.7824302 -9.8511305 -0.37791377 0
2.8261476 -10.471718 -0.3801952 0
2.6010554 -10.601026 -0.38108841 0
2.0125616 -13.544983 -0.37825799 0
1.8304131 -13.638794 -0.38736966 0
6.4092712 6.7600303 0.062203065 0
6.4750261 6.6306558 0.065360218 0
0.6652391 -17.07892 -1.2162418 0
0.45344138 -17.872379 -1.2150422 0
-1.5898015 -27.083351 -1.2040404 0
-1.6208029 -28.152637 -1.2096092 0
4.1714859 -1.3457843 -0.81966394 0
4.3476763 -1.4938251 -0.81797934 0
4.1143103 -2.0828211 -0.85685873 0
4.1571493 -2.268393 -0.82941949 0
3.9680679 -2.8548021 -0.87517899 0
3.8470848 -3.8605046 -0.82433033 0
2.0344238 -10.588386 -0.82528621 0
1.8609865 -11.255586 -0.80617481 0
1.5842757 -13.765098 -0.95654148 0
1.3780506 -13.973431 -0.98823637 0
1.3070292 -14.327065 -0.95774567 0
1.2524884 -15.033547 -1.1117146 0
1.1001806 -15.091576 -1.1235558 0
1.007267 -16.595781 -1.1299891 0
0.81879067 -16.784435 -1.1648227 0
0.3783114 -18.879496 -1.1493582 0
0.15242791 -19.009871 -1.1707264 0
0.088733912 -19.669832 -1.1072176 0
0.049490929 -19.822638 -1.1248245 0
-0.18170452 -20.447626 -1.1010437 0
-0.088804483 -20.599743 -1.117685 0
-0.26604462 -22.035912 -1.1084659 0
-0.48503137 -22.278706 -1.1379174 0
-1.8312466 -27.669291 -1.0870998 0
-1.7143569 -27.950043 -1.1948293 0
5.6709747 4.9026628 -0.6288622 0
5.8075008 4.724359 -0.61833882 0
5.4858179 4.1243143 -0.64647669 0
5.6457863 3.9509544 -0.63720971 0
5.3217402 3.0035563 -0.6325087 0
4.9522142 1.5126982 -0.5987283 0
4.7730122 0.73244601 -0.61287034 0
4.5364332 0.21118486 -0.67157388 0
4.6486092 0.042066097 -0.65633172 0
4.5289617 -0.35508406 -0.63014144 0
4.4910884 -0.67989552 -0.73146671 0
4.2887564 -1.5086352 -0.72798818 0
4.048152 -2.4978738 -0.7322706 0
3.8853447 -3.2392554 -0.77826667 0
3.6250427 -3.8855119 -0.78375059 0
2.5188839 -9.8572254 -0.60966104 0
2.3086243 -10.209965 -0.60774064 0
2.2083898 -10.549287 -0.58900785 0
2.0707331 -10.957028 -0.6047312 0
1.9491553 -11.283451 -0.54412693 0
1.9050219 -11.57548 -0.4130227 0
1.9044535 -12.279454 -0.41230443 0
1.6917086 -12.337164 -0.41355518 0
1.6275892 -13.72996 -0.56425327 0
1.4204249 -14.062263 -0.54677212 0
1.236356 -14.350307 -0.59068495 0
6.196414 6.8680363 -0.34623697 0
6.0213966 6.0991402 -0.36698774 0
5.8322649 5.2887416 -0.37719434 0
5.8124781 5.17308 -0.36987326 0
2.513072 -9.9858112 -0.3789686 0
2.3881984 -10.095285 -0.38912749 0
2.3193104 -10.726817 -0.3792018 0
2.1728406 -10.848073 -0.3896167 0
1.6744545 -13.736544 -0.39829281 0
6.508687 8.6408567 0.083391406 0
6.3538542 7.83847 0.061634805 0
6.3423271 6.8116984 0.061179139 0
6.1017265 6.5417271 0.070026405 0
5.9160728 6.3334522 0.076840334 0
0.29448485 -17.049706 -1.2128448 0
0.11545992 -17.819437 -1.2083254 0
-0.042725563 -19.209499 -1.2023855 0
-0.26700354 -19.40572 -1.2345648 0
4.0530319 -1.2951034 -0.81266302 0
3.7852662 -1.970889 -0.82727277 0
3.630013 -2.670722 -0.85360265 0
1.9680758 -10.690729 -0.84654075 0
1.8478851 -10.870522 -0.8849268 0
1.7531688 -11.300324 -0.86508065 0
1.5252168 -11.656406 -0.95619482 0
1.460747 -11.880905 -0.94025528 0
1.2879474 -12.442789 -1.0409926 0
1.1187477 -13.791702 -1.061959 0
1.0244806 -13.884555 -1.0856373 0
0.73562193 -14.517627 -1.1506476 0
0.7525363 -14.608588 -1.0851569 0
0.88180208 -15.01883 -1.1074405 0
0.56582546 -15.361458 -1.1630424 0
0.3768816 -16.746162 -1.1614132 0
0.0024151802 -19.153807 -1.1936244 0
-0.34395432 -19.880295 -1.1343678 0
-0.51109982 -20.583771 -1.1187756 0
-0.93947458 -22.159666 -1.1312244 0
-1.9584804 -27.682146 -1.0460289 0
5.5742645 5.8430119 -0.40623298 0
5.366353 4.9353185 -0.62082332 0
5.3140287 4.9343472 -0.6188966 0
5.1474943 4.1649742 -0.63781863 0
5.1738195 4.1360774 -0.63612169 0
4.9226542 3.0864148 -0.62766802 0
4.6014919 1.7158984 -0.60150242 0
4.4231415 0.93770349 -0.61580592 0
4.3144078 0.36478066 -0.6753546 0
4.2451386 -0.13792807 -0.59765124 0
4.1190643 -0.3489905 -0.66153544 0
4.0837746 -0.55670512 -0.74196923 0
3.8625503 -1.2673773 -0.79221243 0
3.8809824 -1.4503447 -0.70083857 0
3.5608785 -2.0366955 -0.78937525 0
3.6510804 -2.4161825 -0.71015191 0
3.6157215 -2.5306678 -0.68558747 0
3.47822 -3.1810322 -0.74209142 0
3.4179327 -3.2742224 -0.71503544 0
3.3677621 -3.7476883 -0.77894294 0
1.9586017 -10.699357 -0.56539875 0
1.8437614 -10.885008 -0.60018837 0
1.6650958 -11.294643 -0.62731546 0
1.5520856 -11.630285 -0.53903306 0
1.3734305 -12.007744 -0.66412884 0
1.338897 -12.352858 -0.43534693 0
5.7328939 7.4573565 -0.37087736 0
5.8671494 7.1356964 -0.35487872 0
5.5787821 6.6788545 -0.39182228 0
5.7126751 6.3525805 -0.37531769 0
5.4700108 5.7411156 -0.39833295 0
5.7027063 5.6088009 -0.39420176 0
1.6498864 -11.504889 -0.39568973 0
1.4258559 -12.263945 -0.39563501 0
6.2922277 8.602314 0.085805103 0
6.0320244 8.3685598 0.093394503 0
6.1536827 7.8419218 0.062963337 0
5.8372965 7.5339704 0.073226891 0
5.6447725 6.6207905 0.070359476 0
5.7549105 6.3763351 0.076545708 0
0.39756703 -14.855725 -1.214501 0
0.27926993 -14.955915 -1.2340693 0
0.15015244 -15.586904 -1.2059832 0
0.061282396 -15.717886 -1.2308377 0
-0.27895546 -16.997391 -1.2108691 0
-0.12039542 -17.771502 -1.2028419 0
-0.63596368 -19.384434 -1.2385496 0
3.3829916 -2.6859555 -0.80887467 0
2.9368403 -3.4400988 -0.80066144 0
1.2966831 -11.726955 -0.97115833 0
1.1030989 -11.884064 -1.0236776 0
1.0830622 -12.424668 -0.9510498 0
0.88311601 -12.656976 -1.0112768 0
0.77042699 -13.059317 -1.1153544 0
0.59249163 -13.8976 -1.1177343 0
0.56953049 -14.653936 -1.1198291 0
0.36264253 -15.035374 -1.1144545 0
0.31419659 -15.402126 -1.1710658 0
-0.018426895 -16.715673 -1.1626153 0
-0.077533245 -16.89123 -1.1925796 0
-0.28207397 -17.541235 -1.1704677 0
-0.28974462 -17.635815 -1.1845607 0
-0.62577367 -19.942701 -1.1443045 0
-0.81889462 -20.100588 -1.1645366 0
-0.87620902 -20.626202 -1.1466645 0
-1.0909448 -20.856853 -1.1556579 0
-1.2045369 -22.209658 -1.1412801 0
-1.3523397 -22.33342 -1.1576434 0
5.4384785 7.003489 -0.4083558 0
5.41751 6.9475813 -0.40467799 0
5.3046741 5.9010334 -0.405379 0
4.9489193 5.0448971 -0.61666304 0
4.9891386 5.0090933 -0.6146667 0
4.7950487 4.2626314 -0.63466811 0
4.781229 4.226707 -0.63087642 0
4.6599483 3.0638189 -0.61786598 0
4.4542761 3.0086389 -0.6070295 0
4.2248831 1.8000094 -0.59104735 0
4.0443506 1.018329 -0.60456491 0
3.9423993 0.41173995 -0.65349704 0
3.8008287 0.12280387 -0.60898459 0
3.7548153 -0.34396118 -0.65956414 0
3.6571269 -0.5148685 -0.69883043 0
3.497587 -1.355754 -0.69960582 0
3.375921 -1.8457302 -0.78298551 0
3.3152735 -2.1544185 -0.73416585 0
3.1821585 -2.6181908 -0.79296577 0
3.1369455 -2.9133067 -0.764754 0
2.9329553 -3.4638276 -0.79420364 0
3.0834873 -3.6465082 -0.76596677 0
1.3061922 -11.713271 -0.60037947 0
1.1564643 -11.95752 -0.56271368 0
1.0211728 -12.35442 -0.5876084 0
0.92055368 -12.722304 -0.56299275 0
0.70216584 -13.048143 -0.60473931 0
5.5944748 7.8014712 -0.3883518 0
5.5568714 7.6949463 -0.38150039 0
5.3866367 6.8626742 -0.39910221 0
5.19384 5.8052483 -0.39778373 0
5.0039606 5.5999794 -0.38230449 0
5.7815094 8.3662853 0.095012218 0
5.6069717 7.5877709 0.073336706 0
5.6046333 7.0825219 0.057733852 0
0.097799778 -14.77718 -1.2032166 0
0.15746474 -14.840488 -1.2141026 0
-0.13554549 -15.547565 -1.2019156 0
-0.06297183 -15.648203 -1.219424 0
-0.36611319 -17.070971 -1.223081 0
-0.61860633 -17.324486 -1.2649434 0
-0.60422468 -17.8111 -1.2145622 0
-0.83497834 -18.055996 -1.2544677 0
-0.88110495 -19.221199 -1.2205514 0
2.8575997 -1.4768403 -0.80069119 0
2.6714478 -2.2720442 -0.80547023 0
2.784467 -3.3733454 -0.80121529 0
0.67435503 -11.858029 -1.109998 0
0.47664237 -12.604446 -1.0933007 0
0.54505968 -12.985448 -1.1332575 0
0.17143226 -13.370918 -1.0508246 0
0.24469161 -13.870393 -1.1155437 0
-0.035618067 -14.655502 -1.1828945 0
-0.034869909 -15.110915 -1.1433643 0
-0.23442721 -15.367896 -1.1773736 0
-0.40001535 -16.598946 -1.1511832 0
-0.46834779 -17.657215 -1.1899053 0
-1.0316463 -18.900784 -1.1782494 0
-1.2594438 -20.035784 -1.1638539 0
-1.4247344 -20.836704 -1.0440079 0
-1.2706952 -21.090261 -1.1841958 0
-2.4104102 -25.559578 -1.0952758 0
-2.6698744 -26.311928 -1.0799569 0
-3.4458044 -29.144583 -1.1781273 0
-3.3209012 -29.301151 -1.1875949 0
5.1875143 7.1152878 -0.41046613 0
5.1447277 6.9940147 -0.4024924 0
4.5371399 4.9941611 -0.59938186 0
4.5716081 4.294208 -0.63033736 0
4.3297644 4.2088757 -0.61513412 0
4.1361232 2.9032116 -0.58881438 0
3.8939455 2.754365 -0.5687871 0
3.7575576 2.0657053 -0.60084599 0
3.9123089 1.8740114 -0.58444405 0
3.5942066 1.2860361 -0.61523181 0
3.7476883 1.0926975 -0.59856784 0
3.5073528 0.43790215 -0.62725532 0
3.4548035 0.27800906 -0.61168432 0
3.2786009 -0.31731373 -0.67282677 0
3.4060862 -0.42326427 -0.68103838 0
3.1042702 -1.0340918 -0.74301684 0
3.1337521 -1.3476993 -0.65642613 0
2.9747138 -1.7052195 -0.77286512 0
2.9305949 -2.1337476 -0.7067973 0
2.8296511 -2.4383636 -0.78518963 0
2.7635481 -2.7644033 -0.76568407 0
2.5801001 -3.3366075 -0.79089808 0
5.3379316 7.9020452 -0.3897464 0
5.1267881 7.6256723 -0.36999154 0
4.8635845 6.7708731 -0.38433191 0
4.7382479 5.6077051 -0.37892526 0
4.5727329 5.4983563 -0.36985236 0
5.4372616 9.0652637 0.003117024 0
5.2948685 8.998065 0.0056127757 0
-0.99320483 -17.346607 -1.2760519 0
-1.1738844 -18.126274 -1.2717308 0
2.6989815 -1.3999838 -0.80191559 0
2.4851747 -2.1708765 -0.80957365 0
2.1276603 -3.1447911 -0.80602449 0
0.31605625 -11.88388 -1.1205386 0
0.10183859 -11.943835 -1.1408527 0
0.13200235 -12.645617 -1.1096452 0
-0.018153429 -12.935424 -1.1379787 0
0.049613953 -13.364654 -1.0511892 0
-0.17340779 -13.659616 -1.0822929 0
-0.24044657 -14.641601 -1.1842517 0
-0.48378301 -14.838246 -1.1774368 0
-0.46038198 -15.250037 -1.1684343 0
-0.70293355 -15.448545 -1.1952566 0
-0.76207972 -16.400753 -1.1278228 0
-1.3575475 -18.907518 -1.1890857 0
-1.5400052 -20.126343 -1.179039 0
-1.7602339 -20.195185 -1.1911068 0
-1.7632458 -20.86475 -1.1493615 0
-1.9885345 -21.589256 -1.0907005 0
-1.9152613 -21.720921 -1.1031128 0
-2.8905382 -26.335062 -1.0847592 0
-3.131629 -26.765823 -1.1986815 0
-3.4407575 -27.537373 -1.1842157 0
-3.6237671 -28.888622 -1.1623991 0
4.3100004 6.3406844 -0.41868803 0
4.1946812 4.900372 -0.58106148 0
3.9454958 4.7446032 -0.5600701 0
4.012579 4.127429 -0.5984171 0
3.7830698 3.9769721 -0.57815355 0
3.6527882 2.6508508 -0.55346936 0
3.4693401 2.2151761 -0.5887562 0
3.309468 1.3894938 -0.6158548 0
3.1109037 0.54532677 -0.61994022 0
3.0592299 0.17384651 -0.58965117 0
2.9309185 -0.19529194 -0.66528904 0
2.7817061 -0.89296824 -0.7430467 0
2.6571491 -1.3944815 -0.69529587 0
2.6207089 -1.5866065 -0.78023106 0
2.5042303 -2.0978618 -0.69090456 0
2.376452 -2.687252 -0.75616312 0
2.3110163 -3.2459555 -0.79199487 0
4.7493925 7.5920868 -0.36199912 0
4.7045679 7.4649835 -0.35379487 0
4.5946646 6.8056326 -0.38203216 0
4.4572411 6.679409 -0.37225148 0
4.4039364 5.7952261 -0.38598531 0
5.4389811 10.988298 0.029785942 0
5.3017597 10.208438 0.0054440005 0
5.1171045 9.1576176 0.0018611077 0
5.1487942 9.0338898 0.0052117435 0
-1.3979948 -16.835201 -1.2116593 0
-1.2768005 -17.175011 -1.2579474 0
-1.6248477 -17.626945 -1.2106137 0
-1.498728 -17.953875 -1.254588 0
-1.6702151 -18.931419 -1.20314 0
-3.8508141 -27.247604 -1.247687 0
2.0783107 -2.0402436 -0.80263281 0
1.8787327 -3.0555487 -0.81604207 0
-0.19353104 -11.839921 -1.1244571 0
-0.027603149 -11.915371 -1.1375217 0
-0.39833152 -12.610354 -1.1263289 0
-0.23747528 -12.839314 -1.1493957 0
-0.49061096 -13.07593 -1.1766851 0
-0.51984632 -13.670427 -1.0945767 0
-0.69195187 -13.832017 -1.1734906 0
-0.76526988 -14.539571 -1.1798747 0
-0.62118459 -14.838795 -1.1724801 0
-0.91163337 -15.148051 -1.1678104 0
-0.76227391 -15.426016 -1.192745 0
-1.1747391 -16.39237 -1.1437823 0
-1.7886677 -18.752371 -1.1266898 0
-1.7443318 -18.994848 -1.0568358 0
-2.0463212 -19.564507 -1.0294818 0
-2.0050702 -19.71434 -1.04505 0
-2.0652926 -20.980534 -1.1861854 0
-2.219229 -21.2775 -1.0630831 0
-2.6170142 -22.063885 -1.159431 0
-3.4272225 -26.716694 -1.1997019 0
-4.0151663 -28.733088 -1.1585284 0
4.3675666 8.3279238 -0.4002603 0
4.1854649 7.5289984 -0.41965419 0
4.0739536 6.3222003 -0.41481087 0
3.6602485 4.638998 -0.54321623 0
3.4160678 4.4461746 -0.51953834 0
3.4941933 3.8628078 -0.5601036 0
3.2293866 3.6657166 -0.53519416 0
3.0710485 2.6026978 -0.53742748 0
3.2180724 2.3843508 -0.55391419 0
3.0351562 2.1454353 -0.582295 0
2.941813 1.4048769 -0.60353631 0
2.8535945 1.37264 -0.59619111 0
2.7645104 0.60356772 -0.61097866 0
2.6819818 0.4719063 -0.60415554 0
2.5598879 -0.13304263 -0.67754221 0
2.4983468 -0.19267556 -0.62757331 0
2.3705649 -0.81225652 -0.72419471 0
2.3060763 -1.2753078 -0.75463414 0
2.2389255 -1.4829222 -0.77188659 0
2.1475744 -1.970885 -0.72552502 0
1.9725437 -2.6302714 -0.74796271 0
1.6736722 -3.0834289 -0.79859477 0
4.360754 8.3012447 -0.39858034 0
4.4423275 7.7476788 -0.36668742 0
4.2961512 6.9855928 -0.38829419 0
3.794534 5.9736156 -0.39000267 0
5.1685839 11.147842 0.026973886 0
5.2256107 11.008628 0.030301414 0
5.0323439 10.370098 0.0025261026 0
5.0904207 10.236669 0.0058076782 0
-1.6776032 -16.810482 -1.217087 0
-1.6905816 -16.865963 -1.2254421 0
-1.8472064 -17.571142 -1.2095869 0
-1.8937461 -17.645426 -1.2217287 0
-2.2709982 -18.759344 -1.2030718 0
-2.1961269 -18.793867 -1.204628 0
-4.150075 -26.833563 -1.2217481 0
-3.9758804 -27.100418 -1.2387543 0
-4.2492571 -27.890593 -1.2246816 0
1.8945736 -1.0780511 -0.81572026 0
1.7427769 -1.8615758 -0.82410663 0
1.426741 -3.0126061 -0.81026673 0
-0.48414052 -11.579311 -1.0724648 0
-0.67648518 -12.345724 -1.0726767 0
-0.82712662 -13.020674 -1.1793836 0
-0.92321789 -13.523162 -1.0733539 0
-0.99215829 -13.795723 -1.1784645 0
-1.1231929 -14.336321 -1.156238 0
-1.1382648 -14.912082 -1.1536244 0
-1.2879245 -15.00884 -1.1591202 0
-1.6392086 -16.420218 -1.1725563 0
-1.5970733 -16.502352 -1.1843951 0
-2.0598857 -18.771887 -1.1568601 0
-2.05459 -18.86154 -1.0494354 0
-2.2042115 -19.522566 -1.0482442 0
-2.4038942 -19.617533 -1.1095757 0
-2.5618725 -20.262815 -1.1189619 0
-2.6439688 -20.399565 -1.1361086 0
-2.9860513 -21.84547 -1.1476279 0
-2.8168128 -22.00692 -1.1594492 0
3.9521511 7.5263019 -0.41636738 0
3.4853051 6.2938147 -0.40703955 0
3.205411 4.5093389 -0.52098203 0
3.0064957 3.7559404 -0.53888708 0
2.9275825 2.6281781 -0.53748065 0
2.6848557 2.4715772 -0.56845307 0
2.80617 2.1353011 -0.57339901 0
2.4831119 1.5987293 -0.61330587 0
2.6294096 1.3633425 -0.58737785 0
2.2469077 1.0803622 -0.66679013 0
2.3188865 0.47709024 -0.59574735 0
2.1537399 0.041531146 -0.69425946 0
2.209306 -0.14028996 -0.6109482 0
2.0118737 -0.71114755 -0.72763824 0
1.944669 -0.96175814 -0.68581665 0
1.8453557 -1.4033086 -0.7640928 0
1.7452575 -1.833962 -0.71506101 0
1.5845701 -2.5289335 -0.75822121 0
1.6157775 -3.0859785 -0.79566711 0
4.1245413 8.2943239 -0.39512438 0
3.8425765 7.960618 -0.37165487 0
3.663645 7.17133 -0.39105618 0
3.6220746 5.9736905 -0.38826382 0
-2.0343826 -16.639462 -1.2210873 0
-2.1177399 -16.832298 -1.2531023 0
-2.185276 -17.530539 -1.2155386 0
-2.3141742 -17.595427 -1.2296602 0
-2.3987434 -18.69908 -1.2004442 0
-4.3815451 -26.666681 -1.213727 0
-4.4565668 -27.598736 -1.2067012 0
-4.4043646 -27.726217 -1.2152467 0
1.5232785 -1.0272915 -0.80967772 0
1.3454709 -1.8030459 -0.81738132 0
1.0750866 -2.965857 -0.81791502 0
-0.88993204 -11.546766 -1.09014 0
-1.0625215 -12.314262 -1.0888439 0
-1.2312648 -12.963782 -1.1763582 0
-1.3039818 -13.38658 -1.075294 0
-1.3771336 -13.709373 -1.1802577 0
-1.5173492 -14.313272 -1.1698831 0
-1.670984 -14.95185 -1.1716039 0
-1.9846365 -16.485035 -1.1897141 0
-2.3921149 -17.347366 -1.1973177 0
-2.5557506 -18.613985 -1.1960961 0
-2.5153229 -19.38114 -1.1192111 0
-2.8662245 -20.054602 -1.1047317 0
-2.772579 -20.400101 -1.1396775 0
-3.2682784 -21.292347 -1.0986784 0
-3.1614387 -21.628841 -1.1305518 0
-4.573061 -27.426851 -1.1441722 0
3.3873184 7.501545 -0.40805486 0
3.2752316 7.4417114 -0.40316048 0
3.35268 6.2499919 -0.40310311 0
3.2191336 6.2279649 -0.40058792 0
2.8152885 4.6035914 -0.52246308 0
2.6315866 3.8350892 -0.53911483 0
2.3595443 2.5137367 -0.557504 0
2.1559956 2.3390036 -0.58257061 0
2.1896327 1.5934793 -0.60462397 0
1.9818321 1.5731618 -0.59703577 0
2.0077813 1.1125646 -0.66467631 0
2.0086131 0.40493 -0.59533685 0
1.8016932 0.24847007 -0.66643137 0
1.6196973 -0.58895987 -0.73779643 0
1.529686 -0.98326027 -0.69219989 0
1.452636 -1.3361102 -0.76054394 0
1.3473234 -1.7598188 -0.72274172 0
1.1970916 -2.4665112 -0.76614338 0
3.5617149 8.2768927 -0.38756961 0
3.6345556 7.9961739 -0.37144309 0
3.4931824 7.1878495 -0.39002892 0
3.0960429 6.1704102 -0.39599496 0
-1.9893522 -14.411213 -1.2125733 0
-2.1942234 -15.182484 -1.2103463 0
-2.3684316 -16.525412 -1.2238892 0
-2.4947684 -16.703285 -1.2430584 0
-2.5705028 -17.396767 -1.2117988 0
-2.7716317 -17.44059 -1.2268296 0
-3.1887183 -19.967028 -1.2039188 0
-4.671113 -26.589071 -1.2139711 0
1.1214858 -0.96039075 -0.81513172 0
0.94921529 -1.7237402 -0.82570606 0
0.68270719 -2.9106212 -0.83531171 0
-1.2777015 -11.458932 -1.0997324 0
-1.4445782 -12.21218 -1.0937972 0
-1.616497 -12.939817 -1.0915259 0
-1.7623403 -13.621118 -1.1864157 0
-1.743021 -14.365927 -1.1907248 0
-2.0180829 -14.567307 -1.1584958 0
-1.9155009 -14.953279 -1.1782755 0
-2.0297101 -15.133775 -1.192521 0
-2.4967802 -16.168844 -1.1846803 0
-2.4171712 -17.289295 -1.1900688 0
-3.0155475 -18.175423 -1.1597035 0
-2.8629525 -18.388832 -1.1806583 0
-3.2341545 -19.874029 -1.1953496 0
-3.4578302 -20.72311 -1.174204 0
-3.4746306 -21.118912 -1.0882112 0
-4.9311466 -27.341063 -1.1772622 0
3.1734087 7.4426093 -0.40214911 0
2.4097548 4.6192408 -0.51758218 0
2.2278008 3.8552036 -0.53449327 0
1.9374286 2.5869002 -0.52800059 0
1.8618968 2.3328004 -0.57624996 0
1.8206531 1.6459424 -0.603203 0
1.666077 1.5595648 -0.58909023 0
1.5898917 1.0612894 -0.64611202 0
1.4058118 0.26048791 -0.65628964 0
1.2282143 -0.49112549 -0.74782175 0
1.1269683 -0.99812841 -0.63726318 0
1.0653226 -1.2254484 -0.77464885 0
0.94274306 -1.7802601 -0.716286 0
0.79363978 -2.4084744 -0.77980554 0
3.2157776 8.1808004 -0.37833795 0
2.9630072 7.3927593 -0.39699039 0
2.7457397 6.1977315 -0.39522055 0
-1.9861748 -12.782084 -1.2053266 0
-2.2160628 -13.544447 -1.2051802 0
-2.32939 -14.510603 -1.2506332 0
-2.584971 -14.732176 -1.3057573 0
-2.5063133 -15.201756 -1.2325954 0
-2.7717445 -15.409552 -1.2856044 0
-2.9453907 -16.530155 -1.2304239 0
-2.7684419 -16.633715 -1.2362589 0
-3.1453867 -17.296446 -1.2244306 0
-2.9701695 -17.40576 -1.2311605 0
0.72602725 -0.9216761 -0.82214487 0
0.55431938 -1.6845473 -0.83192718 0
0.41229308 -2.889432 -0.84735805 0
0.18517888 -2.9658813 -0.83485657 0
-1.6510754 -11.275134 -1.0920254 0
-1.8363881 -12.075091 -1.098403 0
-1.9474101 -12.670193 -0.98658907 0
-1.9815459 -12.761376 -1.0223569 0
-2.1091547 -13.537333 -1.195244 0
-2.3630414 -14.330416 -1.1390972 0
-2.7130227 -15.912256 -1.1585265 0
-3.1030748 -18.130337 -1.1585602 0
-3.3072782 -18.163353 -1.1750418 0
-3.6159046 -19.516451 -1.1698093 0
-3.4511878 -19.760977 -1.190326 0
-3.8087389 -20.378935 -1.1705072 0
-3.7542851 -20.662317 -1.0920262 0
-5.0307436 -25.39266 -1.1323421 0
-5.1649065 -26.092524 -1.1099606 0
-5.7272472 -28.280586 -1.1661686 0
1.9901464 4.6210985 -0.51260382 0
1.8056183 3.8480859 -0.52835488 0
1.4785044 2.5594997 -0.51600701 0
1.4582762 2.3213339 -0.54084879 0
1.2638268 1.4888813 -0.57392126 0
1.199038 1.0551711 -0.63917762 0
0.98469174 0.99937654 -0.62802559 0
1.0159528 0.26598883 -0.66887504 0
0.88986695 0.074959949 -0.54324657 0
0.83130473 -0.45054325 -0.75184047 0
0.87060636 -1.0100464 -0.63493431 0
0.66328961 -1.1054572 -0.72628188 0
0.62143755 -1.7679638 -0.72072303 0
0.48855844 -1.7805276 -0.72004724 0
0.38653958 -2.4230795 -0.78307754 0
2.7939732 8.1858463 -0.37500399 0
2.6460643 7.4278655 -0.39631739 0
2.3562071 6.2395239 -0.39561701 0
-2.2723501 -12.646489 -1.2025077 0
-2.4677994 -13.417842 -1.20136 0
-2.8620274 -14.056125 -1.2100285 0
-2.757468 -14.351529 -1.2524608 0
-2.7749145 -14.723414 -1.2803447 0
-3.0039856 -15.095259 -1.2483002 0
-2.896256 -15.455006 -1.3018538 0
-3.2017555 -16.357748 -1.2199124 0
-3.4084637 -17.141306 -1.2167381 0
0.38747281 -0.83155119 -0.85080314 0
0.17580104 -0.91233504 -0.83403289 0
0.19968498 -1.5934459 -0.8604908 0
-0.012026727 -1.674527 -0.84315687 0
-0.24183035 -2.4531965 -0.80008131 0
-0.18345314 -3.0094423 -0.84313208 0
-1.9691885 -10.894144 -1.0400397 0
-2.1597848 -11.674187 -1.0419568 0
-2.0134776 -11.870596 -1.0694718 0
-2.4369111 -12.426809 -1.1335266 0
-2.4115162 -12.709449 -1.0613846 0
-2.6225667 -13.223239 -1.176983 0
-2.6663964 -13.547039 -1.0995903 0
-2.6613994 -13.94346 -1.0978215 0
-2.5415263 -14.195105 -1.1317853 0
-3.1126754 -15.690888 -1.1556711 0
-3.0553665 -15.770556 -1.1636691 0
-3.3539231 -16.140581 -1.1982633 0
-3.6206834 -18.137413 -1.1910076 0
-3.8251822 -19.032209 -1.1258215 0
-4.0421276 -19.778954 -1.115451 0
-3.9384015 -20.090666 -1.1445026 0
-4.0571384 -20.776302 -1.0765737 0
-4.3502226 -21.11795 -1.1248308 0
-4.469552 -21.212051 -1.1399238 0
-5.3214598 -26.116539 -1.1154991 0
-6.01476 -28.064917 -1.1587279 0
-5.8712988 -28.226934 -1.1662831 0
1.7304136 4.5619693 -0.5043999 0
1.528204 4.5064068 -0.49755865 0
1.4665136 3.7987752 -0.52030158 0
1.3618388 3.7263632 -0.51237929 0
1.1480334 2.280488 -0.53240383 0
0.93688011 2.1642885 -0.50800204 0
0.93110621 1.4970051 -0.57194448 0
0.72103035 1.3864497 -0.55624723 0
0.75248075 1.0092196 -0.62919873 0
0.7496208 0.24710315 -0.67247957 0
0.54930139 0.197377 -0.64094561 0
0.43949279 -0.36429051 -0.73230946 0
0.36920336 -0.52022147 -0.72427726 0
0.26455504 -1.1179905 -0.71296668 0
0.088653624 -1.8334937 -0.71832609 0
0.048812032 -2.4229884 -0.79399109 0
-0.15598166 -2.4473205 -0.79718322 0
2.4071579 8.2448549 -0.37584749 0
2.2587333 7.4798284 -0.39655563 0
1.9686878 6.3083286 -0.39831036 0
-3.1140728 -14.816772 -1.209573 0
-3.676893 -16.050636 -1.2052412 0
-0.14553851 -1.0169523 -0.82367814 0
-0.27017862 -1.7036583 -0.84541267 0
-0.44942963 -3.1435723 -0.82575363 0
-0.68768287 -3.2196836 -0.82645851 0
-2.3119831 -10.643942 -1.0293812 0
-2.4662044 -11.326618 -1.004511 0
-2.4788318 -11.433872 -1.0299654 0
-2.7712505 -11.986808 -0.97471392 0
-2.6549633 -12.243361 -1.0791596 0
-2.9114094 -13.038469 -1.1380836 0
-2.9384663 -13.41075 -1.0341288 0
-3.0531194 -13.826401 -1.1867701 0
-3.2631383 -14.607217 -1.1865916 0
-3.5745423 -15.521962 -1.1717697 0
-3.4301445 -15.794235 -1.1916423 0
-3.4700387 -16.063805 -1.1945276 0
-3.7034757 -16.758486 -1.1809225 0
-3.7310851 -16.8256 -1.1918103 0
-4.0839653 -17.520769 -1.1413974 0
-3.9308035 -17.737091 -1.1587754 0
-3.8194683 -18.051626 -1.1924655 0
-4.1782064 -18.575691 -1.0919962 0
-4.0996199 -18.994675 -1.1329367 0
-4.3815823 -19.355844 -1.084936 0
-4.2996616 -19.768915 -1.1247534 0
-4.8013372 -21.02269 -1.1363707 0
-4.604578 -21.141365 -1.138985 0
-5.5046787 -25.237986 -1.1328511 0
-5.7545776 -25.953217 -1.1144778 0
-6.2866888 -27.93041 -1.157083 0
1.6567644 7.6052599 -0.40081689 0
1.2578754 4.4397054 -0.48959839 0
1.0252724 4.1684022 -0.47275606 0
1.0547812 3.6234045 -0.50045633 0
0.82095522 3.4433432 -0.48201931 0
0.58984226 2.1407762 -0.51201576 0
0.40797105 1.349515 -0.55124158 0
0.33484685 0.97426367 -0.62549061 0
0.1438489 0.23296475 -0.66174769 0
0.072327316 -0.37576932 -0.78919768 0
-0.031188309 -0.46832314 -0.74788082 0
-0.019848406 -1.161567 -0.71884876 0
-0.21654212 -1.2696284 -0.60820901 0
-0.23725665 -1.9477843 -0.70618522 0
-0.45549917 -2.0421286 -0.69686824 0
-0.4745717 -2.557457 -0.78935575 0
2.0201855 8.3179674 -0.3781257 0
1.8714966 7.5477843 -0.39835992 0
1.6500347 6.2916303 -0.39628246 0
1.3996906 6.0814195 -0.38243231 0
1.2505109 5.8219218 -0.36573902 0
-3.5777309 -13.639614 -1.2017893 0
-3.971761 -16.027187 -1.2209283 0
-4.1658907 -16.780029 -1.2127275 0
-6.3922119 -26.137299 -1.2235984 0
-6.6127892 -26.876503 -1.2050077 0
-0.45871019 -1.0112779 -0.83973157 0
-0.60525012 -1.1649828 -0.81206363 0
-0.65836608 -1.7667751 -0.85010773 0
-0.88056731 -1.8754829 -0.83703387 0
-1.0564005 -3.3376379 -0.83417785 0
-1.2439032 -3.411242 -0.83739132 0
-2.8332255 -10.354547 -1.0471473 0
-2.7324197 -10.620725 -1.0862211 0
-3.044704 -11.178756 -1.0604632 0
-2.9989254 -11.445383 -1.037791 0
-2.9451823 -11.776198 -1.0317008 0
-3.1034629 -12.192026 -1.1165864 0
-3.2212794 -12.57987 -1.1180878 0
-3.2502732 -12.981874 -1.0350722 0
-3.4496353 -13.567695 -1.1783956 0
-3.3613613 -13.660771 -1.1856859 0
-3.7157733 -14.319139 -1.1786698 0
-3.5566695 -14.419628 -1.1806698 0
-3.7950723 -15.250241 -1.1520884 0
-3.9423053 -16.770098 -1.1970724 0
-4.2796354 -17.356936 -1.134956 0
-4.4274111 -18.613802 -1.1070603 0
-4.6606503 -19.275963 -1.1053057 0
-5.0971699 -20.875408 -1.1364037 0
-6.7416773 -27.966938 -1.1734834 0
0.66026324 4.2307763 -0.46837246 0
0.49453133 3.4722314 -0.48438835 0
0.14669311 2.1216726 -0.49261394 0
0.2841914 1.8970236 -0.51106906 0
-0.051121712 1.4202654 -0.56302047 0
0.02618295 0.95778453 -0.58600986 0
-0.23424506 0.782727 -0.6031428 0
-0.19446075 0.12912244 -0.65020263 0
-0.40800917 0.027896225 -0.60550475 0
-0.4088037 -0.52883291 -0.75744939 0
-0.63921905 -0.68557227 -0.71309769 0
-0.59030294 -1.2370909 -0.65150052 0
-0.78925443 -2.0694337 -0.70925426 0
-0.74123359 -2.6697326 -0.78121752 0
-0.95802367 -2.7775555 -0.7741164 0
1.7269013 8.3230915 -0.3771354 0
1.4718169 8.1174498 -0.36367333 0
1.5294857 7.5438957 -0.39643252 0
1.2967366 7.3233457 -0.38180071 0
1.1427886 7.0891857 -0.36670727 0
1.0365915 5.7185321 -0.35907266 0
0.78275836 5.4392591 -0.34138629 0
-3.8959887 -13.459168 -1.2035666 0
-3.786083 -13.621799 -1.2186751 0
-4.1163597 -14.226571 -1.202232 0
-4.0019855 -14.377459 -1.2149029 0
-4.2594385 -15.76403 -1.2051927 0
-4.2008944 -15.914001 -1.221053 0
-4.5047636 -16.575851 -1.2084414 0
-4.4237547 -16.68008 -1.2165918 0
-6.6546755 -25.864176 -1.2112839 0
-6.5193405 -26.054558 -1.2211915 0
-6.8061256 -26.744062 -1.2009945 0
-6.7113371 -26.815184 -1.2033861 0
-0.97072387 -1.2306907 -0.82398731 0
-1.1452665 -1.976149 -0.83423322 0
-1.5026555 -2.8647823 -0.80635697 0
-1.4601228 -3.388597 -0.87081593 0
-3.0732057 -9.825264 -0.98511457 0
-2.9247067 -10.109734 -1.0136214 0
-3.2800853 -10.634198 -0.99421799 0
-3.1669283 -10.942893 -1.0250239 0
-3.28139 -11.34745 -1.0204462 0
-3.6166646 -11.871964 -1.0418804 0
-3.4606822 -12.067005 -1.0550833 0
-3.652663 -12.570608 -0.99626076 0
-3.5115764 -12.799754 -1.0105857 0
-3.9267514 -13.389865 -1.1957598 0
-4.1418104 -14.176763 -1.1969939 0
-3.8042295 -14.382936 -1.1970454 0
-4.1351719 -14.894499 -1.1354933 0
-4.3604069 -15.53184 -1.1818171 0
-4.5558691 -16.372807 -1.1854981 0
-4.7295847 -16.916655 -1.1153316 0
-4.574748 -17.101181 -1.1256013 0
-5.0568342 -19.021334 -1.17913 0
-5.0715876 -19.745117 -1.1564009 0
-5.2840109 -19.792328 -1.1714219 0
-5.445303 -20.668274 -1.1342456 0
-6.9246397 -26.633299 -1.1965193 0
-6.9732876 -27.942406 -1.1790563 0
-7.191349 -27.965528 -1.1877481 0
0.25062591 4.1201406 -0.4587464 0
0.066722631 3.3632603 -0.47458601 0
-0.13739449 2.2115707 -0.55689114 0
-0.29715753 1.9803671 -0.48432454 0
-0.3258543 1.449972 -0.5699479 0
-0.54090011 1.291389 -0.5521934 0
-0.54520619 0.82324862 -0.6184907 0
-0.7109499 0.0031671077 -0.63121241 0
-0.74210787 -0.56338024 -0.78385198 0
-0.90348852 -0.72798038 -0.73329991 0
-0.95843506 -1.251516 -0.72528201 0
-1.1648412 -1.4310838 -0.78439206 0
-1.1685472 -2.142272 -0.71938783 0
-1.3912418 -2.1483853 -0.73434132 0
-1.2899256 -2.8509731 -0.78785753 0
1.10116 7.7535539 -0.34052965 0
0.84054339 7.4975829 -0.32451469 0
0.92714262 6.9825001 -0.35954455 0
0.66776097 6.7196093 -0.34271798 0
0.6487807 5.2969098 -0.33248943 0
0.47923589 5.0113831 -0.31464496 0
0.2891686 4.8251615 -0.30329743 0
-6.9788513 -25.77096 -1.2143996 0
-1.2841105 -1.2660348 -0.84758472 0
-1.4931183 -1.3422652 -0.85182685 0
-1.5264583 -2.0452833 -0.85620463 0
-1.7257087 -2.0855727 -0.86976177 0
-1.6492739 -2.8731565 -0.82040614 0
-1.8777437 -2.9577436 -0.82888097 0
-1.8205216 -3.4807138 -0.89939064 0
-2.0837467 -3.7612453 -0.87619942 0
-3.3703387 -9.4021244 -0.96570534 0
-3.225596 -9.58634 -0.9697032 0
-3.5870697 -10.162626 -0.96810341 0
-3.406029 -10.380099 -0.97098225 0
-3.6397398 -10.842335 -1.0130068 0
-3.791383 -11.671817 -1.0331752 0
-3.8819659 -12.097642 -0.96315801 0
-3.7729161 -12.342322 -0.98059309 0
-4.1165648 -13.162146 -1.1801823 0
-4.3183985 -13.955973 -1.1812021 0
-4.5113077 -14.455268 -1.1165837 0
-4.3420887 -14.633289 -1.1212848 0
-4.6423759 -15.242445 -1.1654366 0
-4.4704599 -15.408042 -1.1736907 0
-4.8399992 -16.041536 -1.163825 0
-4.6716032 -16.215996 -1.173515 0
-4.9524031 -16.739191 -1.1126869 0
-5.4214525 -18.782558 -1.1730204 0
-5.6223259 -19.556168 -1.1643846 0
-5.4360809 -19.694216 -1.1688615 0
-5.7692451 -20.31142 -1.1175547 0
-5.6070213 -20.481834 -1.1248296 0
-7.1822977 -26.467808 -1.1924784 0
-7.5280886 -27.877392 -1.1928732 0
0.0096759796 4.1278558 -0.46073222 0
-0.22192997 4.0371151 -0.45382857 0
-0.20681429 3.3543973 -0.47502023 0
-0.42257583 3.2761874 -0.46902275 0
-0.64170825 2.0072622 -0.5327512 0
-0.78499782 1.6380657 -0.43871966 0
-0.83008349 1.2834859 -0.55674171 0
-0.92387271 0.8565824 -0.6372996 0
-1.1039866 -0.010113701 -0.65739691 0
-1.2865151 -0.16648614 -0.5517621 0
-1.291212 -0.7812531 -0.75267643 0
-1.3869941 -1.2058548 -0.66781026 0
-1.440356 -1.5127877 -0.78831255 0
-1.6235449 -2.1994367 -0.74348259 0
0.70473886 7.3534679 -0.31563446 0
0.50659621 7.0451169 -0.29678914 0
0.43249667 6.7036901 -0.30875218 0
0.30956173 6.230495 -0.31209177 0
0.11410296 6.1172066 -0.30517206 0
-0.14205468 4.9678168 -0.3140192 0
0.046900988 4.8297219 -0.30444676 0
-7.3134794 -25.797228 -1.2268916 0
-7.4501543 -25.793341 -1.2310613 0
-7.6149359 -26.534958 -1.2109047 0
-7.9455538 -27.823847 -1.203692 0
-1.6932743 -0.79295397 -0.81334817 0
-1.8857598 -0.81775469 -0.8285616 0
-1.8857434 -1.4479216 -0.86663431 0
-2.0848908 -1.5774887 -0.87936747 0
-2.0649436 -2.1202347 -0.90656614 0
-2.1254451 -3.1077938 -0.82868248 0
-2.3633146 -3.2414384 -0.83394152 0
-2.3029125 -3.9196839 -0.87869936 0
-2.5390122 -4.0399361 -0.89637858 0
-3.6002476 -9.3274908 -0.99956959 0
-3.8959143 -10.082495 -0.97358823 0
-3.9078543 -10.398506 -0.97708595 0
-3.8154695 -10.668237 -1.0205516 0
-4.1746836 -11.197655 -1.0159596 0
-4.0284662 -11.436936 -1.0301583 0
-4.4904966 -12.749924 -1.1595608 0
-4.3298903 -12.972604 -1.1742978 0
-4.6619539 -13.575274 -1.1616943 0
-4.75914 -13.898328 -1.0957623 0
-4.670023 -14.197617 -1.1009418 0
-5.088274 -14.799955 -1.1456504 0
-4.9315882 -14.978369 -1.1548989 0
-5.13762 -15.753839 -1.1511183 0
-5.3562298 -16.333178 -1.1008362 0
-5.2002811 -16.531816 -1.1097739 0
-5.7961187 -18.570917 -1.1717277 0
-5.9814844 -19.367449 -1.1645696 0
-6.2498665 -19.893997 -1.1065469 0
-6.0780239 -20.045444 -1.1103431 0
-7.8338146 -27.79847 -1.1979777 0
-0.49365878 3.8853512 -0.44193217 0
-0.72957361 3.764236 -0.43330926 0
-0.67642105 3.1214046 -0.45639613 0
-0.92840958 2.9946389 -0.44716707 0
-1.0615971 1.9794689 -0.54623055 0
-1.2734449 1.9208301 -0.54498005 0
-1.2390084 1.2881167 -0.49172741 0
-1.3337424 0.86545885 -0.65677834 0
-1.4788613 0.077096626 -0.67853749 0
-1.5876656 -0.15419659 -0.64901626 0
-1.6021416 -0.82367641 -0.74888563 0
-1.7708247 -0.99561393 -0.72297788 0
-1.8982067 -1.3290079 -0.67887771 0
-2.0046155 -2.2977004 -0.75907218 0
-2.2214644 -2.3955531 -0.76245135 0
-0.11273706 7.0120344 -0.29605448 0
0.093378186 6.8693061 -0.28671363 0
-0.26652479 6.2517781 -0.31433439 0
-0.083132863 6.1125107 -0.30522248 0
-0.35672843 5.1129055 -0.32434192 0
-7.849865 -25.797089 -1.2447034 0
-7.8399267 -26.490417 -1.2150856 0
-8.0569897 -26.507889 -1.2235894 0
-8.1932678 -27.68828 -1.2033237 0
-2.1462262 -0.96498865 -0.82852727 0
-2.3843894 -1.111627 -0.82847756 0
