# .PCD v0.7 - Point Cloud Data file format
VERSION 0.7
FIELDS x y z intensity
SIZE 4 4 4 4
TYPE F F F F
COUNT 1 1 1 1
WIDTH 1389
HEIGHT 1
VIEWPOINT 0 0 0 1 0 0 0
POINTS 1389
DATA ascii
3.656636 4.8499227 -0.76627088 0
3.9195838 4.6341648 -0.76506656 0
4.261148 4.4305673 -0.78041321 0
5.1236429 4.3197455 -0.65375924 0
5.4930363 4.0782442 -0.6794827 0
5.6675577 3.9843519 -0.77944416 0
9.0653276 2.7765396 -0.57085752 0
16.212942 0.4483965 -0.4183453 0
16.258907 0.24813634 -0.4206953 0
16.842146 0.12990791 -0.40462402 0
17.23811 -0.12532157 -0.40325481 0
5.2099953 4.1518769 -0.38316351 0
9.7226772 2.5789816 -0.32251772 0
9.7894945 2.4577138 -0.3269842 0
17.166304 0.087220967 -0.39840889 0
-14.500206 10.728972 -1.0391794 0
-14.179715 10.48751 -0.96720868 0
-13.895087 10.532618 -0.97054988 0
-9.7348995 9.0287323 -1.0739018 0
-9.4872007 9.1523237 -1.0591775 0
-8.2366991 8.4246569 -0.89215475 0
-7.9200306 8.54317 -0.87537706 0
-7.4498734 8.0643568 -0.81918365 0
-7.256289 8.0716419 -0.80493402 0
-5.960043 7.6828895 -0.94602013 0
-5.666585 7.792963 -0.92600405 0
-4.0622773 7.0519466 -0.93997198 0
-2.8967726 6.6016488 -0.97021359 0
-2.5483739 6.6902752 -0.9460718 0
-1.4689252 6.1279721 -0.91555005 0
-0.21323463 5.513495 -0.81347066 0
-0.01640293 5.4915867 -0.81103903 0
0.44875434 5.3113971 -0.85243493 0
0.77251017 5.2003179 -0.8304882 0
1.147691 5.0800571 -0.81436408 0
1.5901486 4.9419041 -0.80689526 0
1.8169832 4.8755617 -0.80813909 0
4.6673975 3.9801376 -0.83213598 0
4.9836826 3.8694878 -0.86805147 0
5.265265 3.5882041 -0.8589431 0
5.8864841 3.6758778 -0.85303122 0
6.0487561 3.4596832 -0.83971208 0
6.3856692 3.2587152 -0.83065033 0
7.3574209 3.16026 -0.86229551 0
7.5493774 2.9220855 -0.88382673 0
7.7741237 2.7087097 -0.88964242 0
8.4718571 2.7864683 -0.86838073 0
8.664547 2.5116034 -0.886563 0
15.260228 0.23884803 -0.91036242 0
15.612884 0.1998232 -0.8442257 0
15.82382 0.096803963 -0.87217581 0
-7.0299549 8.0892715 -0.78951335 0
-6.7102556 8.0396786 -0.76119667 0
-6.3646736 7.9971666 -0.73238546 0
-4.4113722 6.9984617 -0.76366943 0
-4.0602822 7.0069723 -0.74268967 0
-3.7131922 6.9334373 -0.72770715 0
-3.3151271 6.9180584 -0.70565748 0
-2.217716 6.3043127 -0.74848062 0
-1.8175286 6.1955776 -0.74315608 0
-1.4731768 6.0831485 -0.73342162 0
-1.0828682 6.0970182 -0.7259872 0
-0.68196559 5.7799544 -0.78269285 0
-0.28625187 5.8349276 -0.78463167 0
0.10043576 5.5644889 -0.79382932 0
0.40306464 5.3560052 -0.79059809 0
0.78655887 5.2393618 -0.78024054 0
1.1732507 5.1493487 -0.78267324 0
1.5297982 4.9640803 -0.77337456 0
1.9081867 4.7950234 -0.77027011 0
2.1600811 4.6750751 -0.76779729 0
2.9554851 4.7978296 -0.72073019 0
3.1071205 4.6331015 -0.70778191 0
3.4565609 4.4326253 -0.71720511 0
3.8854859 4.3711267 -0.76938492 0
4.2664652 4.1575346 -0.77061588 0
4.5546112 3.9686279 -0.7700333 0
4.8802528 3.868068 -0.65410125 0
5.4886856 3.7703893 -0.57506663 0
5.6374044 3.657181 -0.61176229 0
8.9937067 2.5671165 -0.55800217 0
16.274273 -0.10085505 -0.42157012 0
16.850628 -0.16165322 -0.40625295 0
16.986721 -0.42673939 -0.41504616 0
-14.656528 10.351586 -1.0337331 0
-14.340643 10.202195 -0.98181731 0
-14.114222 10.264237 -0.9784807 0
-10.15407 8.6891947 -1.0908881 0
-10.004753 8.8353281 -1.0862919 0
-9.0458441 8.2244081 -0.94699699 0
-8.6957397 8.2249088 -0.92253286 0
-8.3837528 8.1310749 -0.90025717 0
-7.9812784 8.1382418 -0.86797339 0
-7.6788254 8.0932283 -0.83975279 0
-6.747468 7.4029355 -1.0075922 0
-6.5056968 7.4779267 -0.98663366 0
-6.2186384 7.5507431 -0.96085095 0
-5.0779214 6.8380432 -0.80450517 0
-4.5937414 6.804863 -0.97062427 0
-4.3351297 6.9336758 -0.95562851 0
-3.4120448 6.3161473 -0.98091996 0
-3.1511371 6.3507085 -0.90626675 0
-2.6136534 5.9454136 -1.0174 0
-2.34604 5.9450321 -0.9788264 0
-1.9152559 5.9421191 -0.91919076 0
-1.6637169 5.7244081 -0.82569504 0
-1.1888453 5.4865212 -0.81875151 0
-0.81240427 5.5284042 -0.81953275 0
-0.41962585 5.4083686 -0.81807965 0
-0.045157045 5.2577868 -0.83825845 0
0.24095538 5.2951188 -0.84636462 0
1.0683933 4.621109 -0.84218365 0
3.3479803 4.0678058 -0.81057185 0
3.6789248 3.7853417 -0.8177917 0
3.8838041 3.6542428 -0.83040464 0
4.6771126 3.7537277 -0.80506903 0
4.8611321 3.591285 -0.8168202 0
5.2256651 3.3652384 -0.86477256 0
5.5919447 3.2762516 -0.85381991 0
6.0005221 3.0735118 -0.84702253 0
6.5253983 3.0588229 -0.83907706 0
6.7179933 2.7975593 -0.85466051 0
7.5665054 2.6763077 -0.89465201 0
7.9367771 2.5082521 -0.90450007 0
8.080452 2.2491322 -0.91473931 0
8.7517338 2.3120551 -0.89251506 0
14.752377 -0.066252887 -0.86465746 0
14.987025 -0.12574691 -0.88575363 0
15.42114 -0.17256087 -0.85669297 0
-4.8878832 6.9084845 -0.79513752 0
-4.60144 6.773283 -0.77246642 0
-4.1513143 6.6962194 -0.73544431 0
-2.9243386 6.2615972 -0.79603606 0
-2.6670263 6.1211576 -0.77876586 0
-2.3225281 6.0879703 -0.77027553 0
-2.026242 6.0975399 -0.75798213 0
-1.440789 5.6772318 -0.79745948 0
-1.1755955 5.6573062 -0.77759916 0
-0.90955377 5.7000403 -0.77362704 0
1.4559271 4.8705297 -0.77859086 0
2.0095687 4.6506124 -0.77033532 0
2.2671349 4.5059285 -0.75449455 0
2.586818 4.3387065 -0.75698531 0
2.9415798 4.1688704 -0.77172059 0
3.29708 3.9247415 -0.78066349 0
3.535845 3.8024204 -0.79777151 0
4.8775225 3.5246646 -0.63252157 0
5.0466785 3.4213698 -0.59099573 0
8.6192379 2.095659 -0.55926782 0
16.355011 -0.36141461 -0.42621818 0
16.433683 -0.51029414 -0.43077078 0
16.967224 -0.63136452 -0.41511625 0
-14.90167 10.00135 -1.029343 0
-14.580467 10.045931 -0.99901527 0
-10.384797 8.4313202 -1.0966842 0
-9.5271301 7.9473963 -0.9702909 0
-9.2706938 7.9890003 -0.95664078 0
-8.880868 7.964716 -0.92812055 0
-7.2470832 7.1304188 -1.0422679 0
-7.0235682 7.2801495 -1.0290618 0
-5.7482858 6.6417994 -0.8488186 0
-5.4601316 6.6360011 -0.82774699 0
-5.1211028 6.5867023 -0.93631017 0
-3.8908865 6.0633421 -0.96953219 0
-3.6071153 6.0579848 -0.88425332 0
-3.2290351 5.8218174 -0.91029036 0
-2.8712156 5.8567009 -1.0381669 0
-2.4171684 5.4716945 -0.83499306 0
-2.0859096 5.4463077 -0.82471031 0
-1.7128958 5.3180971 -0.82434326 0
-1.3881841 5.2423296 -0.84314984 0
-0.94517422 5.0200033 -0.85601246 0
-0.59711635 4.9961219 -0.86839795 0
-0.15731725 4.9820333 -0.88115412 0
0.2259945 4.8514466 -0.85522777 0
0.59416366 4.7148952 -0.83520514 0
0.92040741 4.6082244 -0.82785273 0
1.3067913 4.4497924 -0.81944585 0
1.681479 4.252264 -0.80949509 0
2.0699234 4.0609088 -0.81278837 0
2.3832126 3.8711865 -0.81489342 0
2.8081486 3.6361818 -0.83399534 0
3.8139379 3.6480353 -0.82190126 0
4.0105424 3.5053914 -0.83234686 0
4.3243017 3.2479384 -0.85400581 0
4.535203 3.0264862 -0.86481786 0
5.2891908 3.0900788 -0.84322041 0
5.4630051 2.8680556 -0.87519389 0
5.925714 2.8072712 -0.85562748 0
6.2099099 2.586421 -0.86999577 0
6.4386744 2.4054825 -0.87416762 0
6.9767041 2.3290715 -0.87289059 0
14.896695 -0.30555099 -0.87779325 0
-4.9812202 6.6028967 -0.78977966 0
-4.829587 6.6330795 -0.78072488 0
-3.1056402 5.9128389 -0.79230279 0
-2.8954208 5.953557 -0.78379929 0
1.3702627 4.2985449 -0.78738755 0
1.7484583 4.1655068 -0.796435 0
2.4924991 3.7145147 -0.79763526 0
3.1935527 3.8344214 -0.74534559 0
6.3957944 2.3564947 -0.57369149 0
7.9713402 1.9247329 -0.58007061 0
8.5629253 1.8836474 -0.54750144 0
8.6248322 1.8668199 -0.33391917 0
8.708786 1.7705441 -0.33953449 0
19.4645 -2.199249 0.13205729 0
-15.473656 9.7682667 -1.0704796 0
-15.133732 9.7381201 -1.0234569 0
-10.613041 8.087842 -1.0977985 0
-9.75846 7.75879 -0.98525459 0
-9.431673 7.8233356 -0.96497685 0
-7.4548278 6.9863629 -1.055308 0
-6.284411 6.386013 -0.87884057 0
-5.9737692 6.4085598 -0.85356688 0
-5.601368 6.3375673 -0.92247987 0
-5.3468904 6.3342729 -1.0120412 0
-4.4287901 5.7957783 -0.88592726 0
-4.1410604 5.813261 -0.93458432 0
-3.8179195 5.8452716 -0.84207112 0
-3.3509123 5.5139627 -1.0297667 0
-2.9367812 5.3480649 -0.87756348 0
-2.6094134 5.3145766 -0.85753953 0
-2.2613802 5.3385305 -0.84177399 0
-1.9345907 5.028336 -0.89410275 0
-1.4795974 4.8207598 -0.86736321 0
-1.168766 4.9114046 -0.87582272 0
2.8364584 3.5557375 -0.82278061 0
3.1152251 3.4068501 -0.84449655 0
3.4516623 3.1692779 -0.8669495 0
3.7349904 2.9189477 -0.88421828 0
4.659029 2.7944863 -0.86236531 0
4.7845621 2.5444334 -0.85925996 0
5.5095253 2.5812023 -0.83094281 0
5.631299 2.3544698 -0.87731588 0
6.2118168 2.2969863 -0.88327366 0
6.3463264 2.1041656 -0.87178618 0
7.0715828 2.0613213 -0.87629682 0
7.1404676 1.9384747 -0.88358247 0
2.4966486 3.6094871 -0.77586669 0
2.5851328 3.5897272 -0.78631604 0
6.3197269 2.1347811 -0.53584558 0
7.9209805 1.7126579 -0.56802636 0
18.7234 -2.2113619 0.10668029 0
18.711935 -2.3448901 0.10653967 0
19.36179 -2.3934095 0.12365729 0
-16.244287 9.5832872 -1.1222862 0
-15.997374 9.7139616 -1.1082973 0
-15.193385 9.2535954 -0.98433059 0
-10.742288 7.7130961 -1.0882349 0
-10.221594 7.5008183 -1.0101781 0
-9.9992113 7.633327 -1.0000926 0
-7.8962479 6.569613 -1.0763003 0
-7.7363839 6.7367744 -1.0694454 0
-6.7949905 6.1597342 -0.91419363 0
-6.4925585 6.2315559 -0.89014882 0
-6.1833897 6.2964983 -0.86680788 0
-5.7584004 5.960299 -1.0290357 0
-4.9402566 5.5573826 -0.91407847 0
-4.6054134 5.5832272 -0.95759529 0
-4.3637533 5.6299891 -1.0202031 0
-3.768276 5.196424 -1.0333482 0
-3.5402369 5.1456127 -0.92945898 0
-3.1155298 5.1119256 -0.87020248 0
-2.6402364 4.7045164 -0.92261571 0
-2.3563011 4.7970996 -0.91313565 0
-1.9450721 4.7503386 -0.8808288 0
-1.7119832 4.7232709 -0.85627216 0
3.8785279 2.7352386 -0.88693458 0
4.040648 2.477334 -0.88714433 0
4.8965969 2.2891693 -0.85728621 0
5.0272236 2.0438533 -0.86490661 0
5.548943 1.979305 -0.83217537 0
5.9004955 1.7796984 -0.85471606 0
6.3531885 1.7935004 -0.85888618 0
5.645484 1.8873801 -0.74695361 0
5.7466564 1.7792816 -0.57953477 0
6.1694274 1.6862516 -0.66514677 0
5.7303295 1.8255184 -0.32951239 0
5.9161043 1.7572994 -0.25759804 0
6.158874 1.6536188 -0.33844945 0
7.5395927 1.22194 -0.36648643 0
5.9875126 1.7435749 0.10051851 0
18.700516 -2.4784698 0.10638439 0
-16.712484 9.2960787 -1.1479944 0
-16.468729 9.3999147 -1.1327941 0
-15.882755 8.9340134 -1.0393559 0
-15.312692 8.8887281 -0.97844344 0
-10.756709 7.2567468 -1.0526446 0
-10.484678 7.3211465 -1.0242134 0
-8.0983629 6.3436813 -1.085103 0
-7.3297482 5.9596415 -0.9592886 0
-7.0294099 5.9582977 -0.92148387 0
-6.7216644 6.0156479 -0.8928628 0
-6.2109427 5.6453705 -1.0659415 0
-5.9846015 5.7812977 -1.0441468 0
-5.4244432 5.3018684 -0.94066143 0
-5.1952043 5.4337387 -0.92892313 0
-4.8556466 5.2206745 -1.0492051 0
-4.2825212 4.8876553 -0.9699676 0
-4.0258498 4.9784727 -1.0099726 0
-3.5042427 4.5702829 -1.0116504 0
-3.2516944 4.6569381 -0.98790389 0
-2.8719847 4.5246825 -0.91730541 0
4.1600995 2.2361646 -0.88308913 0
4.302072 1.9861858 -0.88842887 0
4.446362 1.7453365 -0.89835685 0
5.0959373 1.7716558 -0.85742813 0
5.4200635 1.560529 -0.84273642 0
5.885191 1.3903904 -0.84744442 0
5.8767896 1.4208732 -0.56012636 0
6.0495243 1.3273406 -0.67791796 0
5.8681736 1.467011 -0.23000513 0
6.0543127 1.2974908 -0.37638754 0
7.6377878 0.82747489 -0.38045833 0
6.0019593 1.509521 0.079426289 0
6.0329137 1.4057105 0.14619242 0
-16.871836 9.0384626 -1.1513896 0
-15.954969 8.686264 -1.0340651 0
-15.442126 8.5347605 -0.97441232 0
-11.224272 6.8796396 -1.0670794 0
-10.939351 6.9569688 -1.053501 0
-8.3506927 6.0201483 -1.0948251 0
-7.8083477 5.7025642 -0.99616772 0
-7.5185733 5.740366 -0.95762515 0
-7.2619247 5.848484 -0.93669325 0
-6.657032 5.3298831 -1.1079367 0
-6.4748816 5.4743586 -1.091576 0
-5.9191976 4.9947844 -0.96632183 0
-5.7109256 5.1430244 -0.95850945 0
-5.1331377 4.8248124 -1.0507528 0
-4.9151254 4.8432655 -1.0252624 0
-4.5388536 4.7063861 -0.97728527 0
-4.2575293 4.5908861 -1.0697544 0
-3.7625051 4.3463511 -1.0086797 0
-3.3550451 4.3439898 -0.94426537 0
-3.1211138 4.3801003 -0.9190383 0
4.5366063 1.4999871 -0.89914495 0
5.3239517 1.2548993 -0.86817515 0
5.5807528 1.1116233 -0.83283323 0
-22.277832 10.867491 -0.77585864 0
5.3155665 1.1973886 -0.54750681 0
5.8349519 1.0217378 -0.61040527 0
5.9423733 0.99064881 -0.64877087 0
5.3730011 1.0139453 -0.32236764 0
5.6796899 0.97307712 -0.23648684 0
5.9991446 0.97437268 -0.36886162 0
7.189765 0.48231751 -0.35948402 0
5.5905976 0.98529512 0.10773531 0
-17.079378 8.6911945 -1.1560097 0
-16.063154 8.318922 -1.0268325 0
-15.654307 8.1886482 -0.97758842 0
-11.44243 6.6679802 -1.0755267 0
-11.055273 6.5477705 -1.0485296 0
-8.6685019 5.6822391 -1.1153769 0
-8.4493952 5.6893563 -1.0768514 0
-8.0472517 5.493072 -1.0009953 0
-7.7559366 5.5828886 -0.9693799 0
-6.8754597 5.0831451 -1.1225464 0
-6.4150972 4.752696 -1.0049397 0
-6.14746 4.8469367 -0.98384768 0
-5.3837328 4.545485 -1.0678227 0
-4.9983215 4.4142737 -1.0009987 0
-4.5971804 4.2382598 -1.0309161 0
-4.2642493 4.1695342 -1.0455443 0
-3.9768546 4.2140789 -1.0242195 0
4.5994811 1.2175248 -0.89267266 0
4.7132993 1.098027 -0.91435403 0
5.1604962 0.80654734 -0.81638378 0
5.579133 0.69852298 -0.85180336 0
-22.267204 10.589231 -0.77000201 0
4.943408 0.99540323 -0.72707582 0
5.2298646 0.80813783 -0.60067493 0
5.5450492 0.67433912 -0.59161097 0
5.7871385 0.57016331 -0.60857505 0
4.8038573 0.83182853 -0.25737107 0
5.138051 0.78073865 -0.20240562 0
5.5598464 0.68440014 -0.24776459 0
5.8188052 0.53975123 -0.21889147 0
6.5178709 0.46827441 -0.3714309 0
6.5936522 0.28020567 -0.37930176 0
7.2654314 0.2535792 -0.36876354 0
7.3188901 0.03169173 -0.37628624 0
4.902986 0.82810193 0.010463844 0
5.0471296 0.74764949 0.16393299 0
5.5304723 0.69323081 0.15427631 0
5.8328843 0.58460945 0.024599487 0
17.947966 -3.7969792 0.116386 0
18.416613 -3.8579848 0.14294542 0
-17.537008 8.4035177 -1.1832447 0
-17.331821 8.5419931 -1.1712053 0
-16.150923 7.9153728 -1.0143002 0
-15.821581 7.9957895 -0.98338127 0
-11.828318 6.2333727 -1.0887425 0
-11.669718 6.3953943 -1.082207 0
-11.189213 6.1675043 -1.0455402 0
-8.9456205 5.3929186 -1.1361274 0
-8.4979448 5.2054896 -1.0329338 0
-8.2716007 5.2857695 -1.0221639 0
-7.149282 4.7573237 -1.1427338 0
-6.5854096 4.545042 -1.0077142 0
-6.375083 4.4972482 -0.99340695 0
-5.55266 4.1568322 -1.0565523 0
-5.2278686 4.1316652 -1.0078779 0
-4.678359 3.844846 -1.0653939 0
-4.4537253 3.8591383 -1.0458289 0
4.419023 0.76978046 -0.81794822 0
4.5105925 0.5341168 -0.83183503 0
5.1797357 0.49185556 -0.81808627 0
5.4825106 0.3220498 -0.85329896 0
4.7728558 0.60518771 -0.60870731 0
5.0798845 0.40998167 -0.63714123 0
5.2225718 0.2471146 -0.59134096 0
5.6762066 0.27951556 -0.63338065 0
4.7866154 0.57920223 -0.34248981 0
4.9796424 0.47211605 -0.24667372 0
5.4227028 0.2996822 -0.22135063 0
5.7240491 0.24256033 -0.25431865 0
6.0423527 0.19825059 -0.39061424 0
6.6978307 -0.033639967 -0.39089066 0
6.7334704 -0.21820265 -0.39529836 0
7.3493266 -0.14288384 -0.38122249 0
5.0157895 0.51213235 0.09609513 0
5.4010949 0.4989782 0.23027526 0
5.7196436 0.19835097 0.088759862 0
17.791286 -3.9747279 0.11865641 0
18.255806 -4.0803843 0.12269505 0
19.286224 -4.6646972 0.1227119 0
-17.999943 8.0295134 -1.2092247 0
-17.868988 8.0895853 -1.2003947 0
-17.765059 8.2007198 -1.1953321 0
-16.90633 7.6882582 -1.0563102 0
-16.483847 7.5744553 -1.027007 0
-16.32107 7.6444998 -1.0198346 0
-11.965847 5.9890676 -1.1032795 0
-11.811259 6.0349073 -1.1184142 0
-11.428123 5.8784256 -1.0399827 0
-9.3014221 4.9451413 -1.1615775 0
-9.0755205 5.0044847 -1.1141715 0
-8.7264643 4.9319782 -1.0458196 0
-7.4218192 4.3556805 -1.161111 0
-7.2870126 4.5267048 -1.1492105 0
-6.8558083 4.2257066 -1.0226088 0
-5.8963337 3.8825588 -1.1082916 0
-5.6654015 3.8008442 -1.0256046 0
-5.4329634 3.7840717 -1.014172 0
-4.9290013 3.5477822 -1.0802947 0
-4.6546078 3.4426386 -1.0407325 0
4.5928397 0.20512915 -0.84486592 0
5.3191609 -0.0057238936 -0.8380599 0
5.6092725 0.03890425 -0.88971829 0
16.234474 -3.9131911 -0.96720719 0
5.0127954 0.021367669 -0.67950916 0
5.1729169 -0.10466886 -0.49746153 0
5.5851779 -0.047540724 -0.61845928 0
6.0240445 -0.47493809 -0.4143106 0
7.770093 -1.0311761 -0.43960226 0
5.044558 0.087325096 -0.37637597 0
5.2886176 -0.074559629 -0.27889976 0
5.5821829 -0.099089563 -0.18196313 0
5.4236293 -0.067292333 0.16031717 0
5.533083 -0.13726139 0.10619606 0
18.739286 -4.7568674 0.09672118 0
19.281744 -4.8192892 0.10693353 0
-18.191805 7.9494662 -1.2224656 0
-7.7940292 3.9396245 -1.201979 0
-24.056036 9.9810762 -0.84485704 0
-23.907484 9.7410307 -0.83371598 0
-17.198069 7.457058 -1.0718334 0
-16.734919 7.288362 -1.0385969 0
-12.077614 5.678534 -1.1028373 0
-11.936811 5.4653239 -1.10946 0
-11.512064 5.4325523 -1.0213792 0
-9.4151354 4.7115364 -1.1661047 0
-9.143302 4.6159573 -1.0671432 0
-8.8889627 4.5045323 -1.0507293 0
-7.6104078 4.0866895 -1.177433 0
-7.2228379 3.8970163 -1.0477206 0
-7.0314088 4.026545 -1.0456448 0
-6.0578709 3.5020776 -1.0857053 0
-5.7624855 3.4716403 -1.025947 0
-5.2784495 3.1034606 -1.0717584 0
-5.1250443 3.2113545 -1.0880818 0
-4.8377428 3.0965695 -1.0336975 0
4.6004066 -0.1002968 -0.84315741 0
4.6625514 -0.28575432 -0.8605352 0
5.303206 -0.39795154 -0.85088766 0
5.3960881 -0.63044614 -0.88879776 0
15.602444 -4.18085 -0.98745197 0
16.156132 -4.2989488 -0.9779951 0
4.4165115 -0.33275276 -0.65824652 0
4.8868232 -0.26538974 -0.60530746 0
5.060401 -0.35245985 -0.52919662 0
5.4375844 -0.50838894 -0.60938776 0
5.9845748 -0.72526377 -0.42142659 0
7.7415586 -1.3423204 -0.44879985 0
17.904116 -5.0825243 -0.54872501 0
18.476534 -5.0810642 -0.53555387 0
18.547915 -5.236155 -0.53753042 0
4.5481701 -0.30749816 -0.16596858 0
4.6412377 -0.39649349 -0.20804653 0
5.1768913 -0.34687263 -0.2730208 0
5.4959073 -0.49753827 -0.18786073 0
5.7475972 -0.61649793 -0.38474116 0
4.8810644 -0.42956513 0.09832333 0
5.0446277 -0.38866514 0.091499425 0
5.4370685 -0.51310116 0.11984267 0
-19.050386 7.6457863 -1.284179 0
-8.0797758 3.6852777 -1.2406971 0
-7.9204321 3.8339393 -1.2192326 0
-23.904377 9.4488268 -0.82887787 0
-17.580475 7.1074038 -1.094663 0
-17.030104 7.1462803 -1.0564613 0
-12.20861 5.2623453 -1.0941117 0
-12.054125 5.216598 -1.0968689 0
-11.57303 5.0207343 -1.0095437 0
-9.5469055 4.3269053 -1.1672317 0
-9.3453979 4.2432175 -1.076799 0
-9.0607109 4.3103852 -1.0626076 0
-7.7195191 3.5479476 -1.0886549 0
-7.4836178 3.6419995 -1.0769764 0
-6.2292752 3.1602745 -1.0844452 0
-5.9545069 3.055213 -1.0394025 0
-5.4121342 2.8710921 -1.0688747 0
-5.1593761 2.7640173 -1.0790831 0
-4.9212947 2.8733473 -1.0245527 0
4.6664138 -0.62434596 -0.86676383 0
5.1497002 -0.82678336 -0.83991635 0
5.3114309 -0.90340716 -0.89640635 0
15.583452 -4.5330892 -0.99391425 0
16.035549 -4.6813192 -0.97944409 0
4.313169 -0.42387146 -0.59614199 0
4.7931514 -0.65536946 -0.64796776 0
4.9313536 -0.7367776 -0.52202636 0
5.3143845 -0.89587277 -0.61372173 0
5.8749361 -1.1141095 -0.4278726 0
7.6307311 -1.736855 -0.45274422 0
16.669725 -4.9942737 -0.4352662 0
18.012119 -5.3199716 -0.55793035 0
18.498652 -5.4099116 -0.54912829 0
4.6724796 -0.63977784 -0.23893549 0
5.0180535 -0.77852088 -0.22151498 0
5.3004794 -0.90754956 -0.14895284 0
4.7835526 -0.66946048 0.10338073 0
4.9422579 -0.80427331 0.1119975 0
5.2771053 -0.89471334 0.12752682 0
-19.3272 7.3537211 -1.2994944 0
-12.987345 4.9898996 -1.2147952 0
-8.1349354 3.5049839 -1.2419708 0
-8.1349115 3.2948439 -1.2322978 0
-23.719498 8.7825289 -0.80971712 0
-17.980782 6.8049459 -1.1197008 0
-17.789646 6.833385 -1.1034709 0
-12.765059 5.0786819 -1.191678 0
-12.568581 5.1229167 -1.1702464 0
-12.221472 4.8360882 -1.0571216 0
-11.671041 4.6261706 -1.0041107 0
-9.6840124 3.9060063 -1.1399566 0
-9.501543 3.9410493 -1.0884887 0
-7.9367046 3.3310521 -1.1080925 0
-7.6801715 3.2396364 -1.1078387 0
-6.3994584 2.7835093 -1.0929641 0
-6.1905408 2.7520328 -1.0615956 0
-5.5697842 2.5009139 -1.0574585 0
-5.2792964 2.3975494 -1.0818119 0
4.5823541 -1.0325916 -0.85882217 0
5.0124145 -1.1691439 -0.85434759 0
5.2728448 -1.3871284 -0.93393046 0
5.4666729 -1.3841021 -0.99108189 0
6.1701589 -1.7319348 -0.96999842 0
6.2402253 -1.7855694 -0.9902389 0
15.479352 -4.9232411 -0.99464661 0
15.839678 -5.0379705 -0.97455609 0
-23.073229 8.5431585 -0.70186669 0
4.2953873 -0.89936858 -0.60362315 0
4.4768243 -1.0340459 -0.53218377 0
4.7640862 -1.0659616 -0.61040753 0
5.2011847 -1.2971857 -0.58688504 0
5.7588024 -1.454972 -0.41952825 0
6.9773459 -2.0113304 -0.45508367 0
7.5409555 -2.1232033 -0.48362449 0
16.137901 -5.2332616 -0.4580327 0
16.634153 -5.3188729 -0.44576743 0
4.5328403 -1.0618036 -0.25984591 0
4.727715 -1.099298 -0.15588599 0
4.6735597 -1.0253432 0.10758366 0
4.6866727 -1.192816 0.12104483 0
5.2397857 -1.111902 0.041920409 0
-19.629168 6.9488673 -1.3147933 0
-19.507006 7.1035476 -1.3082613 0
-13.060107 4.7050433 -1.2146683 0
-8.1619225 2.9975774 -1.2254165 0
-23.677155 8.4427032 -0.80277854 0
-18.222179 6.5215893 -1.1296164 0
-17.929659 6.5611858 -1.1045578 0
-12.277588 4.409359 -1.0462526 0
-11.744067 4.3263755 -1.0008234 0
-9.8735075 3.613291 -1.1255012 0
-9.7171993 3.4921515 -1.1400334 0
-8.1368437 2.9561946 -1.1264876 0
-7.8305712 2.9794571 -1.1180192 0
-6.8197684 2.340703 -1.0879689 0
-6.5497651 2.433547 -1.1057495 0
-5.7643957 2.1504965 -1.0645221 0
-5.3992376 2.0116608 -1.0904337 0
4.4996367 -1.4509935 -0.8612107 0
4.5743561 -1.6473823 -0.89494443 0
5.2039461 -1.7178652 -0.95735365 0
6.0034938 -1.9966385 -0.9667564 0
6.137682 -2.025353 -0.99694479 0
7.3182564 -2.4728994 -1.0070518 0
15.273087 -5.2805362 -0.98660761 0
15.692049 -5.4137192 -0.97516042 0
-23.054724 8.3135052 -0.69778299 0
4.1495509 -1.1839139 -0.67274725 0
4.3186822 -1.2434199 -0.45043999 0
4.6199164 -1.5418148 -0.61612391 0
5.1329427 -1.6853333 -0.5227142 0
5.662601 -1.8781414 -0.42496791 0
6.9542575 -2.3350964 -0.46309629 0
7.4087138 -2.4843493 -0.57386911 0
16.096893 -5.5358853 -0.46093911 0
16.553637 -5.6395102 -0.45602915 0
4.7079659 -1.3291638 -0.15914629 0
1.455451 -0.30790305 0.10556091 0
4.6854963 -1.3399868 0.024781192 0
-19.784979 6.6481781 -1.321094 0
-13.187524 4.3305454 -1.2193553 0
-8.1573038 2.6186357 -1.2117859 0
-23.76758 8.0075779 -0.80130947 0
-18.412247 6.1852026 -1.1350752 0
-12.581483 4.1128712 -1.0887835 0
-12.381984 4.0381474 -1.0428085 0
-10.172139 3.2665412 -1.1299877 0
-9.7540884 3.1182854 -1.1393263 0
-8.4387808 2.5971904 -1.1449013 0
-8.1787138 2.5617411 -1.1581845 0
-6.9465704 2.1411254 -1.099503 0
-6.5424323 2.0434728 -1.1220695 0
-6.5237594 1.8591976 -1.1401306 0
-5.982542 1.8036308 -1.08494 0
-5.4717541 1.6571927 -1.0858747 0
-5.3860779 1.4567134 -1.0929075 0
4.5549512 -1.9175801 -0.90026367 0
5.0710955 -2.0013001 -0.97282881 0
5.2340078 -2.2466791 -0.98724133 0
5.8340693 -2.4371574 -0.98923761 0
6.0059671 -2.3928709 -1.0009075 0
7.1947827 -2.8377061 -1.022229 0
15.1934 -5.6791024 -0.99137872 0
15.575719 -5.7296762 -0.98046076 0
15.797815 -5.9914427 -1.0006192 0
-23.777693 8.0578642 -0.77738142 0
4.5270176 -1.8961842 -0.6220355 0
5.0791464 -2.051477 -0.48427251 0
5.6088967 -2.1070261 -0.430857 0
5.5764108 -2.4275458 -0.58761239 0
6.8991075 -2.7390931 -0.47216254 0
7.2984824 -2.8742943 -0.59455687 0
16.113075 -5.79848 -0.46632966 0
1.2265122 -0.92777711 -0.02465884 0
1.2483479 -0.93669575 0.13373658 0
-19.856487 6.3628936 -1.3210557 0
-19.85117 6.1743312 -1.3168446 0
-13.385021 3.9672825 -1.2339976 0
-8.552289 2.1340492 -1.2084453 0
-23.795574 7.8368654 -0.8004728 0
-18.82424 5.8315916 -1.1590728 0
-18.596937 5.9382086 -1.1435031 0
-13.062678 3.7324955 -1.1067753 0
-12.466275 3.7022116 -1.0509685 0
-10.490228 2.8274124 -1.1542335 0
-10.360732 2.9990852 -1.1427736 0
-9.8087854 2.7249177 -1.1328405 0
-9.7159958 2.4946456 -1.1344193 0
-8.605341 2.3049467 -1.1582627 0
-8.3310328 2.2898121 -1.1859709 0
-8.0940161 2.1013408 -1.1872584 0
-7.1185069 1.7726657 -1.1113853 0
-6.6922646 1.6273086 -1.0987241 0
-6.5171456 1.5607657 -1.134504 0
-6.1538067 1.4306366 -1.0987599 0
-5.6527171 1.2546933 -1.0705532 0
-5.3443751 1.1449819 -1.0814523 0
4.5305519 -2.3231375 -0.94315547 0
4.7110887 -2.4012918 -0.98694754 0
5.1948786 -2.6181009 -0.96343607 0
5.5583735 -2.6754532 -0.97577196 0
5.9343514 -2.8211074 -0.99217534 0
6.7320237 -3.1647575 -0.98992223 0
7.1000962 -3.1699402 -1.0159264 0
15.045981 -5.9311991 -0.98665023 0
15.426615 -6.203547 -1.0143542 0
15.785355 -6.3236609 -1.0155575 0
-23.787617 7.6320443 -0.76915485 0
4.4634786 -2.1529763 -0.61932069 0
5.0587339 -2.3289852 -0.44493735 0
5.3673167 -2.7135189 -0.60548121 0
5.4949551 -2.5514352 -0.60529763 0
6.7952223 -3.156719 -0.53920496 0
7.2159429 -3.2136614 -0.60601789 0
17.75149 -6.9128251 -0.55055404 0
17.957275 -7.0281372 -0.56449497 0
1.1849593 -1.0093429 -0.079263471 0
5.7632675 -2.8117354 -0.32096162 0
5.8447752 -2.6724951 -0.31846648 0
1.2004148 -1.0038457 0.14893387 0
-19.811178 5.8240528 -1.3068713 0
-19.605101 5.5929232 -1.2180655 0
-13.574045 3.6202471 -1.2493188 0
-13.496631 3.6083937 -1.239737 0
-8.9856501 1.8541713 -1.2063754 0
-8.5844736 1.9168236 -1.2064936 0
-19.070726 5.54778 -1.1718422 0
-13.256512 3.4984941 -1.1212289 0
-13.057298 3.3674967 -1.1221189 0
-12.703505 3.4500699 -1.0830804 0
-10.59445 2.5690491 -1.1590502 0
-10.113199 2.3894353 -1.1303768 0
-9.6592121 2.2354438 -1.1214293 0
-8.8074198 2.015028 -1.1805971 0
-8.5799789 1.7073002 -1.1987375 0
-8.1282578 1.7058201 -1.188336 0
-7.2564821 1.3888204 -1.1201657 0
-6.7805915 1.2603424 -1.1042778 0
-6.5095539 1.1410117 -1.1235015 0
-6.2658162 1.0215662 -1.1000937 0
-5.7295284 0.85308629 -1.0757399 0
-5.2878294 0.81659943 -1.0701274 0
-5.2333574 0.58524662 -1.0615393 0
3.6607347 -2.602452 -0.82334071 0
4.1057916 -2.714468 -0.92386079 0
4.4315004 -2.7070596 -0.96292943 0
4.7267418 -2.7547085 -0.99590868 0
5.1066117 -2.9265668 -0.94465595 0
5.3919001 -3.0797005 -0.99964088 0
5.7724881 -3.1899598 -1.0020413 0
6.5983067 -3.4778388 -1.0218074 0
7.036377 -3.6268823 -1.0273311 0
8.2260523 -4.0589581 -0.98845816 0
15.354967 -6.5773005 -1.0281971 0
15.605559 -6.6526508 -1.0154525 0
-23.750069 7.3232756 -0.79188728 0
2.8099687 -2.127511 -0.51285243 0
3.216502 -2.2563274 -0.59023386 0
3.5438437 -2.5182841 -0.57574964 0
3.7441719 -2.6668155 -0.66704673 0
5.170423 -2.9657285 -0.61140448 0
6.6755233 -3.502126 -0.6095888 0
7.0894914 -3.6114066 -0.69503444 0
7.1832995 -3.7192471 -0.49509662 0
17.671587 -7.5309114 -0.54104859 0
2.9166565 -2.2408559 -0.32179919 0
3.2123897 -2.2677805 -0.35952359 0
5.6012535 -3.1261492 -0.33029956 0
-19.791414 5.4464083 -1.260632 0
-19.694328 5.2650089 -1.2729886 0
-13.711349 3.3894486 -1.2614474 0
-13.607786 3.2222834 -1.2461909 0
-9.2036142 1.5978868 -1.2368752 0
-9.1337738 1.6654844 -1.2264806 0
-19.40855 5.2518158 -1.1922612 0
-19.264584 5.3527527 -1.1828666 0
-13.515359 3.1513352 -1.1705041 0
-13.160013 3.0637503 -1.0965375 0
-10.677505 2.2332165 -1.1589679 0
-10.710223 2.0847256 -1.1588676 0
-10.185197 1.9886224 -1.1305231 0
-9.5541286 1.9213464 -1.1010197 0
-9.4942398 1.6880777 -1.0898002 0
-8.585 1.4397867 -1.1924735 0
-8.1114779 1.3556125 -1.182982 0
-8.0333843 1.1285589 -1.1680171 0
-7.3549075 1.0050688 -1.1254162 0
-6.8795686 0.97727996 -1.1184801 0
-6.9018435 0.76618248 -1.1193812 0
-6.3468885 0.65129071 -1.1025994 0
-5.7581882 0.57145864 -1.0768291 0
-5.7495985 0.36129647 -1.0723387 0
-5.1509433 0.22654694 -1.0539967 0
3.9639046 -2.9665868 -0.91776544 0
4.352457 -3.0694673 -0.98915511 0
4.6054726 -3.2323539 -0.92913526 0
4.9958434 -3.3114326 -0.96361339 0
5.2994285 -3.4400952 -0.98912239 0
6.5007105 -3.8729613 -1.0268136 0
6.8351789 -3.8683498 -1.0173289 0
15.137748 -6.9142718 -1.0060256 0
15.49474 -6.996624 -1.0258974 0
-24.651888 7.1018162 -0.75882453 0
-24.466297 7.2222614 -0.77255815 0
-23.002666 6.352705 -0.74383128 0
2.7006366 -2.3499775 -0.54423624 0
3.9161606 -2.8130271 -0.60031396 0
4.2148142 -3.0495608 -0.60009652 0
4.5045915 -3.2744443 -0.60126126 0
4.9039969 -3.3216841 -0.61497223 0
5.3002758 -3.4428508 -0.60608387 0
6.5817575 -3.8868845 -0.63710135 0
6.7493606 -3.9929421 -0.59309971 0
7.1230516 -3.9085915 -0.50067157 0
17.164696 -7.7536182 -0.52265257 0
17.411173 -7.7127552 -0.54769772 0
17.73881 -7.7728329 -0.57143849 0
0.97828853 -2.0101473 -0.056806084 0
1.0653244 -1.9411182 -0.047981597 0
2.7537398 -2.3796737 -0.32734853 0
3.5781522 -3.0156114 -0.33405256 0
3.7584126 -2.8777688 -0.33367178 0
4.1200061 -2.9843304 -0.38301632 0
5.3903098 -3.47136 -0.3400659 0
5.6257067 -3.626981 -0.32254505 0
0.98879385 -1.9949124 0.11256655 0
1.064059 -1.9886441 0.17158009 0
-19.999496 5.0144329 -1.2543749 0
-19.792103 5.0061007 -1.291622 0
-14.470028 3.0754492 -1.3479049 0
-9.2103062 1.2328417 -1.2260792 0
-13.931787 2.7326696 -1.1779158 0
-13.608372 2.7913022 -1.1559113 0
-13.340839 2.894151 -1.1128064 0
-10.768089 1.7938604 -1.1588302 0
-10.134944 1.5910704 -1.1143513 0
-10.10098 1.3645589 -1.105245 0
-9.3859148 1.3876553 -1.0715954 0
-9.2623682 1.1446316 -1.0522488 0
-8.5711508 1.124748 -1.1829661 0
-8.5139618 0.90276581 -1.1686127 0
-7.9893427 0.81548601 -1.1617987 0
-7.4643927 0.61954671 -1.1381944 0
-6.8929453 0.41559893 -1.1136409 0
-6.3432255 0.26304823 -1.0994632 0
-6.2928953 0.11217755 -1.1032574 0
-5.7284145 0.0061884522 -1.0675052 0
-5.0242596 -0.23330206 -1.0476583 0
4.0309248 -3.4867494 -0.96809328 0
4.3828831 -3.4990737 -0.96677357 0
4.8547935 -3.726146 -0.95779419 0
5.1031184 -3.6245191 -0.93058813 0
6.0424867 -4.0961161 -0.98318857 0
6.2841887 -4.055902 -1.0199687 0
7.7082639 -4.8433542 -0.99671829 0
8.1562862 -4.7448382 -0.99790972 0
11.379892 -6.2121577 -1.1322376 0
11.502058 -6.1843672 -1.1427882 0
14.719894 -7.1824026 -1.0028856 0
15.047765 -7.2656498 -1.0049708 0
15.207542 -7.4587946 -1.0200969 0
-24.439232 6.4880843 -0.74245197 0
-24.358267 6.371192 -0.73744869 0
-23.009964 6.0565987 -0.74127525 0
2.6549587 -3.0488493 -0.49650732 0
2.9102316 -3.1161935 -0.55750477 0
3.1630218 -3.2933152 -0.60021162 0
4.7720218 -3.6953089 -0.61694312 0
5.0883665 -3.7453673 -0.60128289 0
6.4831223 -4.0744052 -0.7733255 0
16.69875 -7.9446678 -0.50584179 0
16.905773 -7.956665 -0.53748465 0
17.239943 -8.0050974 -0.54687971 0
0.45434251 -2.2524774 -0.062929206 0
0.53801322 -2.2153132 -0.064759769 0
0.94386315 -2.2463546 -0.11799291 0
2.8709121 -3.1544664 -0.32399389 0
3.3778868 -3.1744635 -0.34057334 0
4.5302105 -3.7973912 -0.29860252 0
4.5928154 -3.820689 -0.30568752 0
5.1267843 -3.8238556 -0.34191257 0
5.4852142 -3.938575 -0.33217075 0
0.44503441 -2.2880318 0.089942448 0
0.55207133 -2.2135363 0.14507256 0
0.95030761 -2.1955693 0.21310857 0
-20.497869 4.7339153 -1.2706299 0
-20.297474 4.7165675 -1.2596632 0
-19.85129 4.6833935 -1.2920108 0
-14.5644 2.7139161 -1.3547776 0
-14.206374 2.5153708 -1.205153 0
-9.2054234 0.80772191 -1.2144608 0
-14.068296 2.6868222 -1.192854 0
-13.719465 2.387337 -1.1798235 0
-10.816409 1.3723371 -1.1555588 0
-10.095208 1.1268191 -1.1012959 0
-9.1446037 0.89108974 -1.0348911 0
-9.0191507 0.62696129 -1.0174578 0
-8.4730625 0.56338865 -1.1576552 0
-7.9266787 0.5192104 -1.1536152 0
-7.7699375 0.29763681 -1.1447033 0
-7.510973 0.15978223 -1.1407747 0
-6.8615513 0.017242968 -1.106854 0
-6.5695457 -0.086435497 -1.1010146 0
-6.2737122 -0.23106974 -1.0965889 0
-5.6688237 -0.30228454 -1.0565308 0
-5.6127429 -0.53552717 -1.0485611 0
-4.918324 -0.53930467 -1.0433325 0
-4.8084459 -0.77837223 -1.0370754 0
3.5427732 -3.7435968 -0.92570078 0
3.8598821 -3.7045972 -0.96027082 0
4.4526591 -4.0253086 -0.93321157 0
4.7395325 -4.0648408 -0.93337601 0
7.5519528 -4.9449821 -0.99211061 0
7.6610184 -4.9526606 -1.0077963 0
11.135101 -6.2883387 -1.112878 0
11.568769 -6.684042 -1.1646353 0
14.659558 -7.6110363 -0.99866271 0
14.899985 -7.6465406 -1.0107515 0
15.19111 -7.8004446 -1.0356199 0
-24.323088 6.1369119 -0.73363101 0
-23.102398 5.7305603 -0.74290776 0
-22.970507 5.7032471 -0.73600715 0
2.1329818 -3.2946846 -0.50873291 0
2.4547803 -3.3157494 -0.54279983 0
2.6294923 -3.5389035 -0.63593996 0
3.3408678 -3.4226563 -0.59649837 0
3.591274 -3.6022246 -0.55707127 0
3.9443486 -3.8487308 -0.65489829 0
4.429976 -4.1040545 -0.61922002 0
4.6964097 -4.0331426 -0.61148614 0
16.441986 -8.1616306 -0.52361482 0
16.68816 -8.3188076 -0.52463377 0
0.39186099 -2.4477999 -0.096916489 0
0.4052417 -2.5668547 -0.13481808 0
2.4266052 -3.3955147 -0.3349452 0
2.6927719 -3.3079789 -0.33188325 0
3.6156209 -3.7861245 -0.32997847 0
4.0003219 -3.9136631 -0.33340859 0
4.3653383 -3.9188416 -0.29828852 0
4.8998504 -4.0752411 -0.35415977 0
4.979701 -4.1659212 -0.34416822 0
5.3237672 -4.2583628 -0.34241033 0
0.40317723 -2.4169896 0.12249538 0
0.40303275 -2.5702355 0.13387702 0
-20.725267 4.4165716 -1.2833737 0
-20.428368 4.3319058 -1.2648784 0
-19.892153 4.1078591 -1.2883505 0
-14.659445 2.3468907 -1.3627849 0
-14.252019 2.1739695 -1.203387 0
-13.980694 1.9491796 -1.2047079 0
-9.1793079 0.57130176 -1.2050705 0
-25.385061 6.2825365 -0.80420053 0
-13.892022 2.0577016 -1.1955605 0
-10.746737 1.0118208 -1.1376125 0
-10.715909 0.78804094 -1.1293594 0
-10.071454 0.70891911 -1.0941494 0
-9.9913025 0.47293979 -1.0807732 0
-9.1561661 0.5229736 -1.1999199 0
-9.0108471 0.30969745 -1.0938525 0
-8.5464411 0.16498309 -1.1355715 0
-8.4784737 -0.030942857 -1.158968 0
-7.7763739 -0.09017843 -1.1396486 0
-7.5130944 -0.24037403 -1.1327608 0
-6.7813339 -0.47248477 -1.0963078 0
-6.2716022 -0.6109367 -1.0831876 0
-6.0892758 -0.76007694 -1.0939565 0
-5.5171766 -0.86315948 -1.0373355 0
-5.45188 -1.0993886 -1.0330726 0
-4.7178984 -1.0671105 -1.0436947 0
-4.5685492 -1.3307731 -1.0377529 0
2.9169569 -3.7287676 -0.80885333 0
3.021035 -3.8034379 -0.84275395 0
3.3965271 -3.9759042 -0.932033 0
3.8929899 -4.3209414 -0.88957632 0
4.2318892 -4.2986021 -0.94397902 0
10.981751 -6.8328009 -1.139781 0
11.390442 -6.7615166 -1.1507677 0
13.501007 -7.7451677 -0.90268642 0
14.123886 -7.8293009 -0.95249677 0
14.403085 -7.9271832 -0.99299806 0
14.772489 -7.9771309 -1.0245578 0
15.027164 -7.9444332 -1.0290484 0
-24.424141 5.7521677 -0.73527712 0
-22.98749 5.2413936 -0.73300034 0
2.037142 -3.4353621 -0.52212459 0
2.8023956 -3.6605451 -0.57387871 0
3.0849454 -3.8522174 -0.57747585 0
3.4386332 -4.0911198 -0.63723803 0
3.7561705 -4.310256 -0.53410041 0
4.2997708 -4.3609986 -0.62273681 0
4.6394172 -4.3077383 -0.6388402 0
16.284132 -8.5936003 -0.52960759 0
16.656721 -8.6399441 -0.53593177 0
2.1012163 -3.5828373 -0.33209643 0
2.1984499 -3.5028303 -0.33115685 0
3.0990531 -4.0295076 -0.33807775 0
3.3615007 -4.0378704 -0.34433675 0
4.5991278 -4.5824156 -0.35648656 0
4.9336648 -4.551836 -0.35113099 0
-20.934778 4.0886388 -1.2949924 0
-20.420832 3.9159596 -1.2588723 0
-19.61454 3.6749814 -1.2601113 0
-19.544163 3.4174974 -1.2517185 0
-14.88018 1.9296725 -1.3868971 0
-14.352615 1.7911046 -1.2084888 0
-14.052065 1.6207433 -1.2098057 0
-13.865165 1.782831 -1.1890645 0
-10.713552 0.49695474 -1.125702 0
-9.8880777 0.20410043 -1.0650011 0
-9.0802584 -0.077387512 -1.1808022 0
-8.855546 -0.16314286 -1.0057604 0
-8.3972425 -0.31496567 -1.1466247 0
-7.6091609 -0.57276839 -1.1373398 0
-7.4055605 -0.76915711 -1.1214749 0
-6.7018375 -0.78432435 -1.0870045 0
-6.6311083 -1.0204179 -1.0801163 0
-6.0962596 -1.1039579 -1.071371 0
-5.8602514 -1.2995954 -1.0949662 0
-5.3612237 -1.3903737 -1.029792 0
-4.4450121 -1.57181 -1.0387462 0
-4.3014483 -1.8376901 -1.0426346 0
1.4394953 -3.8623722 -0.88885939 0
10.61259 -6.9431248 -1.12098 0
10.766787 -6.8802409 -1.133389 0
13.204904 -7.940609 -0.89138371 0
13.47436 -7.9912252 -0.91167873 0
13.923339 -8.2191343 -0.98133135 0
14.244274 -8.1545258 -0.99329442 0
-25.174503 5.6768045 -0.78685498 0
-25.049753 5.4627576 -0.7784161 0
-24.412962 5.4363947 -0.73227155 0
-24.318018 5.1919994 -0.72588336 0
-23.10276 4.8789296 -0.73613262 0
1.4412719 -3.859957 -0.60092461 0
4.1605692 -4.5529828 -0.63051581 0
16.276426 -8.8692961 -0.5291121 0
2.6761832 -4.4287682 -0.34576556 0
2.8732502 -4.2696843 -0.34245452 0
4.1915798 -4.8071814 -0.36273426 0
4.4558263 -4.8045888 -0.34838325 0
4.8975658 -4.900629 -0.3608025 0
-21.073608 3.7025714 -1.3003755 0
-20.373423 3.6468656 -1.2517622 0
-20.286541 3.4159055 -1.2420646 0
-19.661119 3.2134981 -1.260112 0
-19.601774 3.206238 -1.254999 0
-14.910847 1.5521708 -1.3894938 0
-14.539127 1.3897796 -1.2249838 0
-13.982205 1.3952122 -1.1995817 0
-10.667014 0.14952475 -1.0902944 0
-10.469761 -0.078079641 -0.94545728 0
-10.074942 -0.24670523 -0.85446227 0
-9.6654167 -0.31657022 -1.0338281 0
-9.0768795 -0.3823964 -1.180661 0
-8.9439373 -0.59747571 -1.0867909 0
-8.3194294 -0.62562031 -1.1369334 0
-8.264513 -0.86207837 -1.1321195 0
-7.6351242 -0.96795553 -1.1491293 0
-7.3694906 -1.1210763 -1.1185368 0
-7.2278614 -1.3510294 -1.098657 0
-6.5586624 -1.3909466 -1.0818529 0
-6.0852365 -1.432277 -1.0536525 0
-5.8936114 -1.6181757 -1.0664835 0
-5.560318 -1.7995491 -1.0821079 0
-5.1427126 -1.9237902 -1.0210216 0
-4.1593785 -2.0573556 -1.0433328 0
-4.0095634 -2.323894 -1.0540442 0
1.3460767 -4.1459141 -0.96011561 0
13.027515 -8.2700214 -0.90979999 0
13.328031 -8.4348593 -0.92328352 0
-25.087843 5.1086817 -0.7765761 0
-24.36207 4.9776778 -0.72657984 0
-23.279917 4.3942661 -0.74195153 0
1.222096 -4.1377563 -0.64350075 0
1.342566 -4.1870198 -0.37639326 0
1.552229 -4.1065936 -0.36904761 0
2.6609602 -4.4546795 -0.3477053 0
3.5720677 -5.1254454 -0.29784596 0
3.830044 -5.002162 -0.30558157 0
4.3952532 -5.1357198 -0.36576071 0
-21.092176 3.2960341 -1.2960608 0
-20.254776 3.0087984 -1.235603 0
-19.752914 2.9367931 -1.2660607 0
-19.75931 2.7766125 -1.2656535 0
-14.911984 1.1750271 -1.3360417 0
-14.723662 1.0353935 -1.3049879 0
-14.408987 0.78583652 -1.3295358 0
-10.454263 -0.40154332 -1.0830209 0
-10.24838 -0.56503314 -0.89142984 0
-9.5315075 -0.56829542 -1.0161197 0
-9.3934765 -0.82780713 -0.99934793 0
-8.9238939 -0.96936721 -1.1072531 0
-8.894949 -1.1871252 -1.157582 0
-8.1586123 -1.1935313 -1.1220281 0
-8.0873547 -1.4369199 -1.1174461 0
-7.569231 -1.4782553 -1.1659495 0
-7.1712232 -1.600177 -1.0971776 0
-6.4046707 -1.8637569 -1.077402 0
-5.8738289 -1.9569442 -1.0443438 0
-5.6543622 -2.1464167 -1.0618259 0
-5.2883167 -2.2942777 -1.0800606 0
-4.9214015 -2.4424524 -1.0251848 0
-3.870311 -2.5507519 -1.0632094 0
-3.6862273 -2.6862087 -1.0509408 0
-3.4414387 -3.0019205 -1.0638897 0
0.90003443 -4.546968 -0.84306872 0
1.1091119 -4.5638289 -1.0034252 0
1.4783525 -4.7333746 -0.85039836 0
12.838522 -8.6701593 -0.91193795 0
13.203636 -8.6595564 -0.92855144 0
13.504623 -9.0348492 -0.96579111 0
-25.134752 4.7145891 -0.77503633 0
-23.702408 4.1097617 -0.68922198 0
-23.440092 3.9812915 -0.67569262 0
0.901595 -4.5599089 -0.5395506 0
1.0298727 -4.405302 -0.52593112 0
1.5060824 -4.6930528 -0.56491679 0
1.1178738 -4.3372655 -0.39555162 0
3.8912141 -5.5300989 -0.36210814 0
4.2331219 -5.6189895 -0.3795127 0
12.230145 -8.6108179 0.20282596 0
12.328563 -8.588872 0.2016719 0
-21.056992 2.9915268 -1.2891401 0
-20.969141 2.7246258 -1.2785939 0
-20.399364 2.6714027 -1.2451015 0
-20.096062 2.444495 -1.21805 0
-19.676527 2.4524548 -1.2568984 0
-15.460121 0.69638807 -1.3288181 0
-14.954426 0.8980425 -1.3135854 0
-14.892301 0.73773032 -1.2897267 0
-14.319942 0.550556 -1.3200291 0
-14.268612 0.34458047 -1.3152987 0
-10.260006 -0.87243193 -0.97147608 0
-10.068995 -1.1416163 -1.0307422 0
-9.1257219 -1.2936442 -1.0017223 0
-8.8579741 -1.4478092 -1.1206175 0
-8.0011654 -1.7355158 -1.1143637 0
-7.4908662 -1.8168337 -1.1738499 0
-7.253767 -1.9952335 -1.1376195 0
-7.0096493 -2.1843591 -1.0951486 0
-6.3038301 -2.1624281 -1.0776482 0
-6.2052574 -2.4099443 -1.0776712 0
-5.632792 -2.4688463 -1.0335447 0
-5.4117146 -2.6631191 -1.0626589 0
-5.0731845 -2.8039691 -1.1022975 0
-4.634479 -2.927428 -1.0244733 0
-4.5029001 -3.1672251 -1.0312308 0
-3.3011444 -3.2119136 -1.0802382 0
-3.231375 -3.2578146 -1.0774457 0
0.20759776 -4.808929 -1.1257229 0
0.66707325 -4.792829 -0.96431911 0
0.97443271 -4.9037952 -0.92712128 0
1.3339837 -4.9373131 -0.89508927 0
12.477287 -9.1075907 -0.90535295 0
12.669018 -9.0403109 -0.91808271 0
13.056752 -9.1237268 -0.94735426 0
13.365817 -9.0774069 -0.95776182 0
-25.04283 4.2943044 -0.76676875 0
-23.692696 3.8553388 -0.68753767 0
-23.540026 3.7243416 -0.67946309 0
-23.043114 3.6979516 -0.72620952 0
0.72650719 -4.7865114 -0.5549683 0
1.0145459 -4.9593048 -0.57160926 0
1.2978798 -4.9836025 -0.60568154 0
13.676331 -9.2016516 -0.40924025 0
13.87746 -9.5991373 -0.43985492 0
1.4348452 -5.1564579 -0.36909655 0
1.662428 -5.1276402 -0.37374765 0
3.7696359 -5.8281946 -0.38217676 0
13.171631 -9.2746954 -0.39069089 0
13.386424 -9.1941061 -0.39684418 0
12.270091 -8.900939 0.19729608 0
12.543482 -9.0924807 0.17384115 0
-20.894331 2.3887727 -1.268719 0
-20.311787 2.1049726 -1.2343702 0
-19.814682 2.0494592 -1.2673867 0
-15.560697 0.51390249 -1.3399181 0
-15.51966 0.45013982 -1.334765 0
-15.046811 0.39451772 -1.3244269 0
-14.269083 0.084498703 -1.3178054 0
-2.8299074 -4.1339436 -1.2039279 0
-18.728394 1.5346763 -1.1729423 0
-10.678671 -1.2892733 -0.91141641 0
-10.50274 -1.1085496 -0.88564241 0
-9.9257851 -1.3978262 -1.013387 0
-9.8265867 -1.637254 -1.0035422 0
-9.1280107 -1.6716919 -0.98067677 0
-8.9620705 -1.7981482 -1.0833579 0
-8.6372519 -1.973464 -1.1348685 0
-7.9462814 -2.0110359 -1.1176608 0
-7.9069214 -2.2301118 -1.1226332 0
-7.2935319 -2.3220019 -1.1766565 0
-7.0146046 -2.5010221 -1.1262482 0
-6.825645 -2.6991284 -1.0946751 0
-6.0941811 -2.6648381 -1.0777446 0
-5.9552217 -2.9330847 -1.0765753 0
-5.4086623 -2.9518421 -1.0376549 0
-5.1452041 -3.1830606 -1.0709108 0
-4.8777628 -3.3749006 -1.148998 0
-4.3482246 -3.3654807 -1.0306349 0
-4.1697135 -3.6615894 -1.044633 0
-3.0220964 -3.7562039 -1.1485505 0
-2.9201286 -3.9913838 -1.1853337 0
-2.4299097 -4.0358725 -1.1266518 0
-2.2293589 -4.3483629 -1.1753561 0
-0.13368234 -4.8211923 -1.1369286 0
0.05828312 -4.8104219 -1.1288611 0
0.86418593 -5.2307792 -0.88637364 0
1.2814204 -5.5516505 -1.0557282 0
11.371772 -9.1506052 -0.83549941 0
12.301436 -9.2725954 -0.90384203 0
12.557097 -9.382926 -0.92734134 0
12.840756 -9.313488 -0.93226266 0
-23.579405 3.4103029 -0.6801675 0
-22.75728 3.0518987 -0.7091009 0
-22.578526 2.9159744 -0.6995343 0
0.89326262 -5.2747388 -0.6020745 0
1.1454549 -5.1947289 -0.65701306 0
13.035357 -9.7077312 -0.41194731 0
13.361122 -9.6683626 -0.42289376 0
13.703115 -9.617136 -0.43260697 0
0.95173502 -5.4290032 -0.37472829 0
1.1660227 -5.3688188 -0.38038641 0
12.926256 -9.5166578 -0.38910884 0
11.549837 -9.1391697 0.20578235 0
11.886074 -9.129981 0.19705407 0
12.121017 -9.2153406 0.18783933 0
12.427947 -9.4105215 0.17121965 0
-20.997574 2.0189202 -1.2740469 0
-20.354382 1.8919151 -1.237052 0
-20.019911 1.5445216 -1.2077007 0
-15.525456 0.079033673 -1.3441708 0
-15.256391 -0.10305613 -1.3513784 0
-18.648256 1.3654845 -1.1660028 0
-10.794063 -1.6030836 -0.91669339 0
-10.611531 -1.7849109 -0.82032657 0
-9.7284269 -1.9593413 -0.99752599 0
-9.1262808 -2.1957676 -1.0761131 0
-8.5368309 -2.3133228 -1.1317575 0
-8.4894924 -2.5466266 -1.1352094 0
-7.8308077 -2.6266479 -1.1334639 0
-7.0455432 -2.7875919 -1.1737357 0
-6.7802124 -2.9968426 -1.1254935 0
-6.5784225 -3.2107193 -1.0908542 0
-5.8207202 -3.1757243 -1.0758603 0
-5.6585855 -3.4295046 -1.0743145 0
-5.1556578 -3.4779885 -1.0428569 0
-4.8639927 -3.6835258 -1.0692065 0
-4.5513692 -3.8584893 -1.1696962 0
-4.0256357 -3.8484085 -1.0504329 0
-3.7495615 -4.0609503 -1.039719 0
-3.5556326 -4.2872329 -1.0590533 0
-2.0778589 -4.4645505 -1.1857299 0
0.47784641 -5.7491236 -0.81333637 0
0.85594428 -5.6707206 -0.92394346 0
1.0842229 -5.7265167 -1.0939058 0
11.249244 -9.3597879 -0.84068805 0
12.182711 -9.691884 -0.92202443 0
12.453795 -9.7409096 -0.92910796 0
-24.362356 3.3091443 -0.72560251 0
-24.21694 3.07781 -0.71689767 0
-23.636415 2.9105241 -0.68150073 0
-23.502371 2.8927948 -0.67479539 0
-22.674192 2.5153463 -0.70345432 0
-10.238919 -1.8905399 -0.77905613 0
0.51820743 -5.7066369 -0.6218397 0
0.69403887 -5.6060042 -0.59177703 0
12.822336 -9.9197054 -0.4088746 0
13.097341 -9.9889498 -0.41882458 0
0.71001363 -5.5792494 -0.38729319 0
11.09093 -9.363143 -0.31126907 0
11.261878 -9.2504816 -0.31354833 0
12.169048 -9.5706892 -0.36074433 0
12.627966 -9.7744551 -0.38760364 0
11.705775 -9.6072083 0.19121653 0
12.042314 -9.6032791 0.17729162 0
12.374207 -9.5721273 0.16976728 0
-20.92244 1.4084156 -1.263298 0
-20.028658 1.2238982 -1.2078767 0
-19.448429 0.98365575 -1.235459 0
-15.65731 -0.2290079 -1.3502659 0
-15.224795 -0.49331301 -1.3503498 0
-4.1429119 -4.4305191 -1.2039222 0
-4.0603991 -4.5538688 -1.2141153 0
-11.02191 -1.9913394 -0.97345024 0
-10.48825 -2.0739474 -0.81345659 0
-10.450003 -2.1638532 -0.81163085 0
-9.6964893 -2.20837 -1.0005914 0
-9.6630192 -2.4232647 -1.0034144 0
-9.1779079 -2.5938966 -1.1101495 0
-8.4267015 -2.8526428 -1.1418624 0
-7.7929373 -2.8666224 -1.1430269 0
-7.7300186 -3.115732 -1.1505395 0
-6.760973 -3.3016131 -1.1760141 0
-6.5233841 -3.5067523 -1.1327811 0
-6.2792659 -3.7210667 -1.0875578 0
-5.3680162 -3.9024823 -1.0809644 0
-5.2542782 -4.1491094 -1.0950092 0
-4.6236734 -4.124332 -1.0679036 0
-4.293375 -4.3336601 -1.1080688 0
-3.5301065 -4.4801092 -1.1070124 0
-0.1357592 -5.9388585 -1.1351039 0
0.30788222 -5.947504 -0.9761734 0
0.57848799 -5.9810967 -1.062216 0
11.002773 -9.6131935 -0.84133738 0
11.10757 -9.8280973 -0.8537423 0
11.444318 -9.8766947 -0.86753142 0
11.956489 -9.8642263 -0.91517979 0
-24.237347 2.6998169 -0.71570611 0
-23.589195 2.526541 -0.67834604 0
0.36322513 -5.9441891 -0.53525531 0
0.64044321 -5.9329882 -0.57401264 0
12.604437 -10.138202 -0.40658352 0
10.88088 -9.5689802 -0.31128201 0
11.131654 -9.8490095 -0.3323662 0
11.47241 -9.7388697 -0.33990642 0
11.967807 -10.119325 -0.37829539 0
12.31921 -10.079969 -0.38856792 0
11.335117 -9.7468357 0.19160271 0
11.502518 -9.7964725 0.18978225 0
11.895927 -10.129942 0.16912289 0
-20.981152 1.197016 -1.2671415 0
-20.648821 0.89156467 -1.2375947 0
-20.143389 0.83816892 -1.2175004 0
-19.420727 0.67176515 -1.2339079 0
-19.351078 0.42867166 -1.2288284 0
-15.862099 -0.66255635 -1.3762405 0
-14.982551 -0.88385504 -1.3252473 0
-14.672061 -1.1740067 -1.2918808 0
-3.9895012 -4.65418 -1.2222681 0
-11.38096 -2.0998657 -0.8578586 0
-11.208414 -2.2840686 -0.8417443 0
-10.978879 -2.4781184 -0.81963223 0
-10.514008 -2.513694 -0.82998234 0
-9.6575422 -2.8386424 -1.0197165 0
-9.1865473 -2.980659 -1.1396656 0
-9.1630459 -3.1997435 -1.1466681 0
-8.3636169 -3.1617475 -1.1504847 0
-8.3173227 -3.38433 -1.1581106 0
-7.6297617 -3.4330266 -1.1582512 0
-7.5134974 -3.677705 -1.1594197 0
-6.4727659 -3.7985885 -1.1834972 0
-6.2320662 -3.9967129 -1.1489191 0
-5.9780464 -4.2094898 -1.1005938 0
-5.132246 -4.4138641 -1.1133007 0
-5.027348 -4.6656394 -1.1343309 0
-4.1680999 -4.5744305 -1.0570506 0
-4.0039501 -4.7613683 -1.0684446 0
-3.8279474 -4.9190454 -1.0736148 0
-3.1203287 -5.047555 -1.1482074 0
-2.9058602 -5.3671093 -1.193258 0
-2.4660115 -5.3057528 -1.1243466 0
-2.2319102 -5.6209893 -1.1762912 0
-0.52480042 -6.24087 -1.1336963 0
-0.34376022 -6.2158036 -1.1298833 0
0.12262979 -6.2122374 -0.98360723 0
10.774624 -10.206983 -0.86614376 0
10.988846 -10.096414 -0.86401033 0
-24.251495 2.3211005 -0.71449018 0
-24.118189 2.1373613 -0.70702738 0
-23.798679 2.0843251 -0.68822354 0
-10.818334 -2.4185309 -0.79915971 0
0.17440858 -6.2202177 -0.57628685 0
2.0448868 -7.0652733 -0.50917435 0
10.732645 -10.147346 -0.32715851 0
11.016465 -10.061677 -0.33487463 0
11.181861 -10.382257 0.18323435 0
11.419953 -10.292001 0.17980622 0
11.717257 -10.260564 0.16991791 0
-20.641882 0.60672456 -1.2361386 0
-20.188915 0.59135562 -1.2215999 0
-20.061777 0.41160423 -1.211202 0
-19.483465 0.13118631 -1.2417474 0
-19.347034 0.14028674 -1.2299968 0
-15.823723 -1.0944536 -1.3743972 0
-15.663862 -1.3557193 -1.3575559 0
-14.575788 -1.4291365 -1.2842888 0
-14.552352 -1.6365635 -1.2850885 0
-8.9903975 -3.6692526 -1.2006699 0
-5.9703331 -4.603282 -1.2060194 0
-5.8685551 -4.7606421 -1.2121661 0
-2.5404356 -5.6389093 -1.2464193 0
-10.993183 -2.8071473 -0.84294945 0
-10.721159 -2.767988 -0.86265129 0
-9.6737833 -3.2347121 -1.0408558 0
-9.6712971 -3.4519026 -1.0516639 0
-9.1177235 -3.4338582 -1.1584036 0
-8.2229843 -3.7188065 -1.1673303 0
-8.1181507 -3.9690821 -1.169906 0
-7.3856134 -3.9176986 -1.1596478 0
-7.2106733 -4.1991282 -1.1581973 0
-5.9832268 -4.4115319 -1.1608367 0
-5.7019081 -4.6941519 -1.1123066 0
-4.884666 -4.8751597 -1.1450237 0
-4.6595263 -5.1652613 -1.1582341 0
-3.6071565 -5.4168768 -1.1520674 0
-3.5984023 -5.4715519 -1.1431793 0
-2.9749157 -5.6157069 -1.1191896 0
-2.8618605 -5.8296022 -1.1587858 0
-0.67481351 -6.2628765 -1.1409312 0
10.607445 -10.356661 -0.86454195 0
10.88546 -10.557811 -0.87973827 0
