# .PCD v0.7 - Point Cloud Data file format
VERSION 0.7
FIELDS x y z intensity
SIZE 4 4 4 4
TYPE F F F F
COUNT 1 1 1 1
WIDTH 1401
HEIGHT 1
VIEWPOINT 0 0 0 1 0 0 0
POINTS 1401
DATA ascii
-4.9495091 8.7555685 -1.1844524 0
-4.5801034 9.0043993 -1.1703804 0
-4.33534 9.0583162 -1.1559914 0
-3.4641089 10.370661 -1.0189508 0
-3.2354305 10.48618 -1.0242751 0
-2.9003425 10.759008 -1.0359095 0
-2.6361666 10.978207 -1.0420066 0
-1.1888491 12.400319 -0.85794681 0
-0.91281044 12.629736 -0.85703009 0
-0.52429307 12.800935 -0.87568003 0
3.4469771 17.037638 -0.89577192 0
3.6479592 17.126757 -0.89854664 0
-20.716333 -6.8537679 -0.67745107 0
-20.769768 -6.7090063 -0.67715144 0
-18.979725 -5.5996623 -1.2644454 0
-9.2428331 3.7460911 -1.2953033 0
-9.1748352 3.9932289 -1.306116 0
-9.0467806 4.325768 -1.310384 0
-16.385769 -2.9403915 -0.97475404 0
-10.664232 2.7662234 -1.1753083 0
-4.6729674 8.6898441 -1.172368 0
-4.3749661 8.7744951 -1.1573741 0
-4.0892167 9.0321608 -1.1459595 0
-3.7284675 9.234396 -1.1341712 0
-2.3488383 10.733237 -1.0136675 0
-2.0574007 10.898263 -1.0027384 0
-0.90921605 12.326064 -0.84596413 0
-0.68366492 12.461375 -0.86082977 0
-0.34159002 12.748048 -0.88644946 0
-0.060797781 12.915309 -0.89715248 0
0.31412974 13.110687 -0.914469 0
3.7543244 16.900873 -0.88604772 0
-20.60874 -7.1385655 -0.67914623 0
-9.2432203 3.1568115 -1.2717701 0
-9.22085 3.4463756 -1.2894235 0
-9.1621332 3.7337012 -1.304166 0
-7.0751462 5.332191 -1.2949359 0
-6.8582354 5.62642 -1.2911782 0
-6.6698074 5.9756484 -1.293739 0
-6.3156242 6.2205334 -1.2638439 0
-6.0763097 6.5211024 -1.2617188 0
-5.8008366 6.7940187 -1.2565346 0
-5.5099392 7.0863428 -1.2566804 0
-5.1803613 7.3353934 -1.2485156 0
-4.8902054 7.61024 -1.2557936 0
-4.5442691 7.8125782 -1.2467753 0
-16.388866 -3.3399687 -0.98507482 0
-11.160683 1.4811926 -0.8412295 0
-9.9582195 2.6734636 -1.049854 0
-3.8200707 8.930294 -1.1341987 0
-3.4713886 9.0366306 -1.1203262 0
-3.2250032 9.3111572 -1.1128708 0
-2.9189992 9.3654795 -1.0997492 0
-2.0774236 10.627391 -0.99781001 0
-1.7839776 10.717087 -0.99104702 0
-1.5016972 10.880352 -0.98562634 0
0.16636077 12.823204 -0.90360188 0
0.51662672 12.964501 -0.91908324 0
0.80921304 13.166616 -0.92882478 0
-20.527239 -7.3830056 -0.68062431 0
-9.1966858 2.9052989 -1.2655259 0
-9.199398 3.1621711 -1.2856728 0
-7.436739 4.4688659 -1.2843983 0
-7.2069058 4.8089194 -1.2863173 0
-7.0058265 5.1257577 -1.2885624 0
-6.7644606 5.4790778 -1.2923836 0
-6.4630218 5.7863474 -1.2740562 0
-6.1964231 6.0666552 -1.2636442 0
-5.9016042 6.3492937 -1.2531176 0
-5.6388474 6.6503444 -1.2558743 0
-5.3352904 6.9103227 -1.2500811 0
-5.0269961 7.1624293 -1.2470237 0
-4.7249613 7.4227481 -1.2511594 0
-4.3674579 7.6324759 -1.2433064 0
-4.1228209 7.9525738 -1.248561 0
-3.8222749 8.1652012 -1.2438061 0
-3.4656408 8.3702593 -1.2345767 0
-17.733438 -5.5765266 -1.1616364 0
-10.99201 0.92027515 -0.82284307 0
-11.029078 1.1308131 -0.8293786 0
-9.7728405 2.3390236 -1.0175071 0
-2.9699349 9.0891867 -1.0989456 0
-2.6334674 9.3104362 -1.0985283 0
-2.3284702 9.5559053 -1.102374 0
-1.4885851 10.611732 -0.97931319 0
-1.2015797 10.705984 -0.97520745 0
-0.90805876 10.876225 -0.97533894 0
1.0592922 13.029813 -0.93345618 0
1.3349828 13.255618 -0.95321375 0
1.6935257 13.482649 -0.98917156 0
1.9586614 13.689227 -1.0071616 0
-9.0806608 2.3549602 -1.2309233 0
-9.136467 2.5695794 -1.2436739 0
-7.6471257 3.6923239 -1.2742608 0
-7.529243 3.9921489 -1.2828193 0
-7.3178835 4.3529019 -1.2847455 0
-5.2918553 5.9029412 -1.2752379 0
-5.1040702 6.1003027 -1.2735516 0
-4.850987 6.4234509 -1.2867314 0
-4.578979 6.7178211 -1.2973539 0
-4.3079276 7.003933 -1.3125899 0
-4.036696 7.194602 -1.3123714 0
-3.5613987 8.0527744 -1.2337008 0
-3.2033014 8.1899738 -1.2166504 0
-3.0629478 8.4279032 -1.2093244 0
-17.539965 -5.753551 -1.1518186 0
-17.270712 -5.702888 -1.1283457 0
-12.791817 -0.98406512 -1.0742974 0
-11.594093 -0.23488575 -0.91235 0
-11.468647 0.046069562 -0.89247221 0
-11.294945 0.364088 -0.86747491 0
-10.960623 0.67412704 -0.82557929 0
-10.947127 0.91922134 -0.82451832 0
-9.7179279 1.73528 -1.0029383 0
-9.6815071 2.0289216 -1.0009577 0
-2.8106513 8.4179993 -1.1860626 0
-2.3662291 9.2894936 -1.1002905 0
-2.0905659 9.3160582 -1.0921699 0
-1.8178231 9.5676107 -1.0891286 0
-1.4706489 9.6736917 -1.0911794 0
-0.92945635 10.621714 -0.97087812 0
-0.62643349 10.721564 -0.97612619 0
-0.36961135 10.903883 -0.97606391 0
2.1982951 13.440114 -0.99696702 0
2.4735975 13.618709 -1.0110776 0
-19.03863 -7.3769236 -0.60727704 0
-9.0146418 2.1062498 -1.2183015 0
-7.7107253 3.1403883 -1.2643886 0
-7.6266551 3.4596906 -1.2732347 0
-6.284966 4.4648957 -1.2859533 0
-6.0359921 4.779469 -1.2859313 0
-5.802959 5.0944657 -1.2808855 0
-5.5392628 5.4058943 -1.2709254 0
-5.2932696 5.6808333 -1.2697971 0
-4.959897 5.9504843 -1.2753718 0
-4.6992292 6.2685857 -1.2879854 0
-4.4316678 6.5522099 -1.2988546 0
-4.1399832 6.8326716 -1.3112676 0
-3.7908003 7.0954189 -1.3010893 0
-3.5392747 7.318511 -1.2963572 0
-3.2019823 7.5572677 -1.2850879 0
-17.268534 -6.0811658 -1.1408468 0
-17.012209 -5.8355341 -1.1121526 0
-11.679306 -0.74013621 -0.93620294 0
-11.55142 -0.48339134 -0.91475302 0
-11.344017 -0.13408524 -0.88461465 0
-10.996778 0.29110616 -0.83593082 0
-10.955078 0.35369152 -0.83007264 0
-9.7341557 1.1880298 -1.0057607 0
-9.6637659 1.4873381 -0.99926448 0
-8.8963547 2.0165 -1.1821132 0
-2.931298 8.1486378 -1.1938815 0
-2.6464691 8.1873713 -1.1715168 0
-2.3810573 8.4311991 -1.1628098 0
-2.0648651 8.5463018 -1.1626676 0
-1.5480658 9.388628 -1.0846382 0
-1.2087346 9.5592813 -1.0839597 0
-0.94003832 9.6968908 -1.0836394 0
-0.34206352 10.651551 -0.97073919 0
-0.084783643 10.717933 -0.9749946 0
0.18385068 10.917928 -0.98712182 0
0.47597113 11.028358 -0.99965662 0
2.5840664 13.239113 -0.99079639 0
2.7630358 13.442262 -0.99837732 0
3.0975122 13.526656 -1.0186281 0
-18.907907 -7.7946997 -0.61119401 0
-7.7654767 2.5695517 -1.255545 0
-7.7073112 2.8891435 -1.2602067 0
-6.553031 3.6608562 -1.2772645 0
-6.3964019 3.9823682 -1.2815233 0
-6.1810579 4.296484 -1.2817574 0
-6.041266 4.5395875 -1.282976 0
-3.2770152 7.2751498 -1.2911263 0
-2.9431512 7.335371 -1.2586395 0
-2.6483152 7.5863662 -1.2325121 0
-2.3804708 7.611104 -1.2132915 0
-16.95801 -6.3173504 -1.1251121 0
-16.845753 -6.1422672 -1.1093664 0
-11.674952 -0.89757687 -0.9401415 0
-9.8661003 0.34557003 -1.0340275 0
-9.7806454 0.62225097 -1.0186083 0
-9.6853609 0.90352005 -1.0040401 0
-8.8172054 1.480742 -1.167466 0
-8.8353481 1.720691 -1.1736895 0
-2.1584649 8.2505569 -1.1584074 0
-1.8080262 8.4508839 -1.1585319 0
-1.5602762 8.5912294 -1.1476358 0
-0.93471348 9.4392891 -1.0786142 0
-0.64916909 9.5310984 -1.0626849 0
0.50170839 10.774362 -0.99342507 0
0.75596845 10.932361 -0.99480706 0
2.7687955 13.182164 -0.98915267 0
2.9990759 13.291784 -1.0089983 0
3.3836265 13.47441 -1.0302888 0
-18.831316 -7.8804026 -0.60954887 0
2.3694773 12.320464 -0.07686913 0
-7.7218499 2.0465698 -1.2321062 0
-7.7524915 2.2749524 -1.2456272 0
-6.6254735 3.1153512 -1.2620875 0
-6.5195842 3.4610186 -1.2766191 0
-2.6723201 7.321866 -1.2341352 0
-2.4245822 7.3361259 -1.2138138 0
-2.1171088 7.5782623 -1.2057379 0
-1.7809149 7.852354 -1.2301557 0
-1.5534557 7.9257603 -1.2358584 0
-17.157412 -7.2048216 -1.1759975 0
-16.930649 -6.9088702 -1.145107 0
-16.803141 -6.5679698 -1.1215023 0
-9.9741478 -0.2401548 -1.0653937 0
-9.8229265 0.077195108 -1.0361876 0
-9.7422571 0.35972017 -1.0209632 0
-8.7483044 0.90157574 -1.1563382 0
-8.7726173 1.1520829 -1.1610801 0
-2.1860974 7.3617544 -1.1987919 0
-2.1226013 7.384716 -1.1993678 0
-1.4917625 8.3172197 -1.1378549 0
-1.2317923 8.430336 -1.1273215 0
-0.97096336 8.6030197 -1.1311029 0
-0.36417302 9.3143816 -1.0433977 0
-0.11381301 9.5096645 -1.0464276 0
1.0230359 10.707908 -0.98330188 0
1.3075498 10.871104 -0.99082547 0
3.5386114 13.276605 -1.0250831 0
2.4358602 12.051948 -0.068068348 0
-17.126337 -7.8725386 -1.2015376 0
-13.1586 -3.9268522 -1.2263106 0
-7.6391034 1.4980559 -1.2062622 0
-7.6523776 1.7144768 -1.2129003 0
-6.6427612 2.5718794 -1.236675 0
-6.5967507 2.8485293 -1.2576693 0
-1.8627104 7.5336905 -1.217968 0
-1.6072158 7.6318913 -1.2272274 0
-1.4293963 7.8558645 -1.2112571 0
-17.100906 -7.7412157 -1.1939529 0
-17.055914 -7.5265379 -1.1803834 0
-16.707884 -6.957437 -1.1288079 0
-9.94561 -0.70477444 -1.0788035 0
-9.8348446 -0.47334391 -1.0544753 0
-9.7837486 -0.22237259 -1.0395377 0
-8.7135849 0.32668823 -1.1584661 0
-8.7142391 0.60395902 -1.156402 0
-7.6234875 1.4298117 -1.1958313 0
-1.3412577 7.5625935 -1.1945652 0
-1.1756526 7.8317041 -1.1940366 0
-0.95731461 8.3599434 -1.1293706 0
-0.6808511 8.3935452 -1.1064942 0
-0.33905253 8.6031885 -1.1229922 0
0.19446507 9.3007231 -1.0406859 0
0.48622265 9.5229053 -1.0510548 0
1.3105959 10.583214 -0.97771066 0
1.6347283 10.706271 -1.0001624 0
1.8734368 10.874206 -1.0105149 0
2.6129017 11.542686 -0.41710278 0
2.6861801 11.707248 -0.41886413 0
2.593472 11.529267 -0.042885635 0
2.6345367 11.633292 -0.045858681 0
-17.157242 -8.2387991 -1.2198995 0
-17.125124 -8.10287 -1.2114927 0
-12.959644 -4.1066999 -1.2127496 0
-7.6124001 0.83888143 -1.2009915 0
-7.6136594 1.2136018 -1.2039739 0
-6.62678 2.0040901 -1.2129565 0
-6.6171355 2.2812757 -1.2263939 0
-16.944777 -8.0529509 -1.1927589 0
-16.944839 -7.7855606 -1.1813174 0
-8.6510611 0.095810831 -1.1583724 0
-8.6476536 0.30015987 -1.1494662 0
-7.5916762 0.8794722 -1.1953381 0
-7.5704093 1.1530333 -1.1927334 0
-1.2505313 7.5626264 -1.1903076 0
-0.99481452 7.5913057 -1.1850189 0
-0.68328083 7.8230619 -1.1780899 0
-0.4232758 8.3319817 -1.1139939 0
-0.12463197 8.4698105 -1.1349089 0
0.18060341 8.687171 -1.1605862 0
0.45237675 8.7283945 -1.1595565 0
0.70680535 9.3056993 -1.0550562 0
1.0278257 9.5037251 -1.0688829 0
2.1551132 10.710876 -1.015484 0
2.4967461 10.892903 -1.0450212 0
2.7411404 11.384032 -0.40680388 0
2.744683 11.216628 -0.030423243 0
-17.309988 -9.0150404 -1.2666709 0
-16.984457 -8.54951 -1.218424 0
-16.974827 -8.3156195 -1.2079856 0
-12.778492 -4.4823132 -1.2100716 0
-7.573122 0.57558149 -1.2032331 0
-6.5912747 1.4957716 -1.2038591 0
-6.6018252 1.712719 -1.2072556 0
-0.079630226 7.8659959 -1.2065277 0
0.16955391 7.9198809 -1.2035067 0
-8.6230354 -0.18845087 -1.1630051 0
-7.5363851 0.59051365 -1.1952065 0
-7.5048757 0.87927049 -1.187108 0
-6.6092577 1.4333367 -1.1959306 0
-0.71273935 7.5149212 -1.1594148 0
-0.4431878 7.6112299 -1.1808294 0
-0.30296478 7.8450527 -1.1934862 0
0.51454341 8.4727621 -1.1531816 0
0.70962894 8.6544418 -1.1498107 0
1.3179601 9.3050241 -1.0677036 0
1.6021115 9.4805412 -1.0833032 0
2.7910676 10.700091 -1.0490645 0
3.0161197 10.86772 -1.0571816 0
2.8645597 10.652537 -0.68275958 0
2.8636062 10.671699 -0.16577384 0
2.8112686 10.890142 -0.12567925 0
2.863229 10.508817 0.00044613346 0
-17.161442 -9.3832865 -1.2719498 0
-17.18638 -9.246583 -1.2665346 0
-16.848898 -8.8177557 -1.2195389 0
-12.543983 -4.958662 -1.2091651 0
-12.609375 -4.7727089 -1.2076325 0
-7.4855771 0.09447974 -1.2022765 0
-7.5250173 0.28241724 -1.2017287 0
0.17764559 7.6845312 -1.2016038 0
0.45841685 7.8527703 -1.2114372 0
0.69131172 7.9414082 -1.2242117 0
-7.4666648 0.12524503 -1.1966116 0
-7.4831576 0.32952207 -1.1943098 0
-6.5085983 0.88206428 -1.1808801 0
-6.5482874 1.1248839 -1.1890717 0
0.17963329 7.6731758 -1.1983992 0
0.40802971 7.7371569 -1.1975279 0
0.99575174 8.4252443 -1.1398878 0
1.2796878 8.5065641 -1.1390865 0
1.8990029 9.2916536 -1.0901991 0
2.1418674 9.467536 -1.1020935 0
3.1107321 10.36542 -0.9970637 0
3.0972133 10.635944 -1.054491 0
-18.812742 -11.163653 -0.69800556 0
-18.829439 -10.890109 -0.69057792 0
3.0110288 10.328213 -0.65613884 0
3.0468352 10.428193 -0.31473902 0
3.3151417 10.522974 -0.18316494 0
3.066627 10.388947 0.0045243702 0
3.2039726 10.512943 0.00013503555 0
-17.010983 -9.7028227 -1.2740378 0
-16.760742 -9.5284758 -1.2505705 0
-12.388669 -5.2058744 -1.2076708 0
0.71033585 7.6975584 -1.2186011 0
0.80316174 7.8520441 -1.2052823 0
-9.7480974 -2.7957854 -1.1544851 0
-7.3966708 -0.11049467 -1.1911552 0
-6.4531136 0.57165474 -1.1770216 0
0.90571034 7.5646787 -1.1916448 0
1.0143641 7.7696042 -1.1942389 0
1.3417865 8.2523327 -1.132364 0
1.6064156 8.3605595 -1.1370325 0
2.4051816 9.2232885 -1.0937397 0
3.2600119 10.041156 -0.96311998 0
-18.660202 -11.349961 -0.69613218 0
-18.635742 -11.142938 -0.68860912 0
3.238678 10.014806 -0.62827861 0
3.3743801 10.094335 -0.31396046 0
3.3819103 10.352818 -0.33063227 0
3.3802478 10.065489 0.016254576 0
3.392942 10.335351 0.0015798 0
-16.743729 -9.8951826 -1.2632186 0
-16.511112 -9.8136625 -1.2449473 0
-12.180456 -5.5199947 -1.2026589 0
-12.059805 -5.5413599 -1.196105 0
-9.584734 -3.0878019 -1.1487718 0
-6.3395953 0.10654277 -1.1705756 0
-6.3862672 0.29776138 -1.1737801 0
1.0352999 7.5314026 -1.1890988 0
1.301155 7.5782495 -1.1917177 0
1.5729438 7.6235561 -1.1927477 0
1.8780931 8.1641331 -1.1355819 0
2.0786862 8.265192 -1.1357844 0
2.5660629 8.8277454 -1.0462749 0
2.7222276 8.938632 -1.0567427 0
3.4241459 9.7914162 -0.94037163 0
3.9778767 10.235963 -1.0481324 0
4.1640573 10.308762 -1.0562015 0
5.2456861 11.225474 -0.87466824 0
5.2331128 11.387873 -0.88157028 0
-19.224125 -12.646704 -0.76182216 0
-18.602192 -11.694028 -0.70390505 0
3.4077885 9.621851 -0.60147798 0
3.5454311 9.7260141 -0.60123855 0
3.4608653 9.5725861 -0.28009799 0
3.4998558 9.7324905 -0.28474465 0
3.4941535 9.5549049 0.035011292 0
3.4962645 9.7420664 0.02953418 0
-16.352716 -10.172389 -1.2487838 0
-16.169403 -10.039713 -1.232107 0
-15.965596 -9.8912745 -1.2114741 0
-12.045239 -5.7624912 -1.2016872 0
2.0168757 7.5110679 -1.2026176 0
-11.863604 -5.8285103 -1.1906823 0
-9.3821115 -3.5925856 -1.1541761 0
-9.4547291 -3.3902972 -1.1517287 0
-8.0586796 -2.2687316 -1.186352 0
1.6284348 7.350008 -1.1802679 0
1.7898272 7.4930463 -1.1861045 0
2.2311268 7.9394994 -1.1200994 0
2.4146929 8.0621271 -1.1254982 0
3.0276439 8.7361298 -1.056254 0
3.2431912 8.8309956 -1.0642343 0
4.4217668 10.034905 -1.0387229 0
5.4848423 10.932373 -0.85792202 0
5.552763 11.079347 -0.86214197 0
-19.149963 -12.847117 -0.76511306 0
3.5859103 9.4395752 -0.58993852 0
3.8226018 9.5588932 -0.60888118 0
3.9727225 9.7989683 -0.63192511 0
3.6251607 9.4013052 -0.27242714 0
3.8707957 9.4859858 -0.28142628 0
3.9992681 9.6652546 -0.29599315 0
3.6262269 9.4263487 0.038281046 0
3.8819509 9.5225315 0.030702092 0
4.0513005 9.7278318 0.0184536 0
-15.902321 -10.31132 -1.2237679 0
2.0546165 7.3865948 -1.2002324 0
-11.588213 -6.0820808 -1.1784574 0
-11.3545 -6.1035795 -1.1605152 0
-9.2614765 -3.8432817 -1.1592147 0
-7.9037414 -2.5733984 -1.1836969 0
2.1589386 7.2759953 -1.1849023 0
2.7093434 7.8760824 -1.1332213 0
2.936723 7.8996878 -1.1351823 0
3.2939708 8.5980282 -1.0596167 0
3.5777593 8.6479292 -1.0756853 0
3.8557739 8.677783 -1.0931835 0
4.7288442 9.8466511 -1.0438766 0
4.9226508 9.9107141 -1.0503451 0
5.5994196 10.821797 -0.85348445 0
5.7094436 10.925463 -0.86367458 0
-18.961679 -13.29353 -0.77070808 0
-18.92668 -13.17178 -0.76535076 0
3.8922954 9.2483149 -0.58523595 0
4.0998702 8.9041128 -0.25280529 0
4.1252298 9.2106848 -0.27127907 0
4.1540399 9.2277908 0.037449677 0
-15.747883 -10.53997 -1.2249453 0
-14.992609 -9.9898195 -1.1482998 0
-11.320442 -6.3794684 -1.1685388 0
-11.149954 -6.2657495 -1.1514505 0
-9.0575037 -4.210237 -1.1614949 0
-7.6779618 -3.0522585 -1.1825773 0
-7.735785 -2.8778276 -1.1827207 0
-6.640471 -2.082123 -1.1905887 0
2.4501061 7.0434961 -1.1649315 0
2.6798108 7.0969872 -1.1751031 0
3.0126915 7.6749306 -1.135147 0
3.2253687 7.7416153 -1.1461102 0
3.9208245 8.4371548 -1.0851154 0
4.0459733 8.5684366 -1.0939945 0
5.0314355 9.6507502 -1.0459323 0
5.110723 9.8212404 -1.0542177 0
-18.71752 -13.649431 -0.77192217 0
4.3784862 9.0027361 -0.26973331 0
4.5993485 9.2038546 -0.28724521 0
4.4123216 9.0021276 0.040105283 0
4.593802 9.1565294 0.030974047 0
-6.519731 -2.5096874 -1.2017269 0
-6.54498 -2.3852091 -1.2076911 0
-14.788237 -10.380286 -1.1493834 0
-14.491782 -10.12956 -1.1215436 0
-10.9872 -6.654233 -1.1537303 0
-10.788872 -6.4674835 -1.1304003 0
-8.7737675 -4.5011835 -1.1500777 0
-7.5143075 -3.284153 -1.1853462 0
-7.5788741 -3.0906558 -1.1829579 0
-6.5743928 -2.2273636 -1.1905779 0
2.7870674 6.8320994 -1.1705705 0
2.9300022 6.888556 -1.168384 0
3.5323529 7.5078616 -1.1413354 0
4.1366091 8.228301 -1.0750971 0
4.3163629 8.3129578 -1.0956411 0
4.1452913 8.0570736 -0.55799037 0
4.1527553 8.0648108 -0.18687744 0
4.1787333 8.0254679 0.090292312 0
4.209199 8.343606 0.077024765 0
-6.3768253 -2.7392468 -1.210112 0
-6.4186492 -2.5636442 -1.2054847 0
3.4597673 6.7351489 -1.2026072 0
3.5221133 6.70678 -1.2062427 0
-21.392694 -17.128563 -1.0011393 0
-14.373903 -10.584055 -1.1324513 0
-14.314327 -10.452763 -1.1209325 0
-10.726585 -6.8083053 -1.1393747 0
-10.458313 -6.6921964 -1.1109284 0
-8.5163946 -4.784235 -1.1425374 0
-7.3113632 -3.6138535 -1.1889362 0
-6.267705 -2.8344209 -1.1931071 0
3.0028419 6.6215801 -1.1498693 0
3.2540431 6.6761012 -1.1785769 0
3.8719869 7.3059535 -1.1474273 0
4.1942019 7.4919753 -0.99701875 0
4.1992931 7.7986565 -0.98592997 0
4.2425714 7.5762615 -0.61106855 0
4.3221416 7.756804 -0.51103973 0
4.2740326 7.5957589 -0.16512708 0
4.3619351 7.7470531 -0.17545006 0
4.262248 7.5586166 0.10668166 0
4.2230868 7.7672071 0.10016182 0
-7.0139198 -4.0471106 -1.2035251 0
-6.199605 -3.0912306 -1.2250999 0
-5.4009972 -2.5581894 -1.2294894 0
-5.4176488 -2.3548203 -1.2252597 0
3.5724325 6.5628505 -1.2016574 0
3.5621085 6.6686449 -1.2044051 0
4.5669408 7.1483445 -1.2000067 0
-14.075236 -10.669591 -1.1171721 0
-10.203905 -6.9779882 -1.1019504 0
-8.2730293 -5.0495472 -1.1358086 0
-7.082479 -3.9153275 -1.1867218 0
3.6305089 6.4563808 -1.1899868 0
4.2085071 7.0347705 -1.0953094 0
4.3206139 7.1773844 -1.0092311 0
4.3416786 6.9654918 -0.62624472 0
4.3420091 7.2199302 -0.62791842 0
4.5249238 7.5482645 -0.44479176 0
4.3713408 6.9501538 -0.27247036 0
4.3899751 7.1330686 -0.24101879 0
4.5179992 7.5417223 -0.17027487 0
4.3677096 6.9557266 0.12835374 0
4.3340244 7.1970096 0.11978173 0
-6.8300834 -4.4607854 -1.207893 0
-6.8361535 -4.4256201 -1.2043004 0
-6.0228829 -3.4492226 -1.2432621 0
-5.2254825 -2.7469311 -1.2352121 0
-5.2930837 -2.5718341 -1.2347832 0
4.0357699 6.129096 -1.205843 0
4.1155081 6.2884531 -1.2252156 0
4.7776842 6.9616575 -1.2093328 0
-8.042592 -5.3995066 -1.1373427 0
-6.9045401 -4.2455292 -1.1919018 0
3.8309617 6.2106872 -1.1803844 0
3.9239488 6.3354321 -1.1959363 0
4.4235034 6.7911716 -0.87629634 0
4.574717 6.9550061 -1.1169227 0
4.9347591 6.9981427 -0.95701987 0
5.6255407 7.5936704 -1.1326108 0
4.4375606 6.734149 -0.61218458 0
4.6718698 6.7241206 -0.62686074 0
4.4522948 6.7185936 -0.2355472 0
4.4515438 6.7499256 0.13344483 0
4.6927285 6.7564697 0.12607737 0
-6.7491288 -4.5128298 -1.2026942 0
-5.8079 -3.8318539 -1.2531245 0
-5.04849 -3.06617 -1.24584 0
4.3514061 6.0669203 -1.2365211 0
4.9429569 6.7613702 -1.2040178 0
-6.6085114 -4.6117058 -1.1952902 0
5.0176387 6.6302962 -1.1975782 0
5.8167472 7.4612741 -1.1481735 0
6.6335073 8.0626898 -0.99434054 0
6.6196899 8.2346239 -1.011517 0
4.667419 6.5377159 -0.62043476 0
4.9670815 6.6901836 -0.55881298 0
5.3988695 6.8630457 -0.44759661 0
4.6660838 6.4830494 -0.24228357 0
4.8722987 6.66151 -0.20093662 0
5.3983121 6.9115114 -0.17697604 0
4.655993 6.5541792 0.1331175 0
4.8973632 6.6775022 0.12079771 0
5.3830347 6.917284 0.094750367 0
-5.5891089 -4.0258398 -1.2470691 0
-5.6204562 -3.9636145 -1.2421846 0
-4.9047904 -3.2687628 -1.2512859 0
4.6533537 5.8015223 -1.2458603 0
4.6051102 5.5361047 -0.95195258 0
4.5829554 5.6720104 -0.96269542 0
5.2021542 6.0868154 -1.1519463 0
5.1655583 6.3668985 -1.1809963 0
6.0974679 7.30584 -1.1704063 0
6.6388626 7.9132371 -0.98644346 0
4.6057906 5.5497527 -0.62084669 0
4.5781851 5.6982002 -0.62618417 0
5.4736109 6.3941336 -0.51454836 0
5.4405866 6.6034908 -0.50686008 0
4.6050625 5.5410953 -0.1947321 0
4.5916162 5.6307812 -0.21862933 0
5.4867544 6.3819723 -0.15629089 0
5.4446359 6.6358008 -0.16645066 0
5.9494896 6.8243155 -0.20739475 0
5.4388061 6.6653938 0.10123681 0
5.9465179 6.8531022 0.075705104 0
4.8503413 5.561348 -1.2482344 0
4.6724467 5.2197375 -0.99904382 0
4.6672411 5.2616138 -0.58940721 0
5.4881439 6.3188677 -0.41952798 0
4.6613517 5.248848 -0.15363352 0
5.5044889 6.3433528 -0.1552138 0
5.9701242 6.652998 -0.20222031 0
4.8023529 5.2009325 0.17485762 0
6.0271268 6.3874869 0.087792039 0
6.0206213 6.6079121 0.080797926 0
4.7561264 4.771822 -0.98768491 0
4.723598 4.9527497 -1.0073495 0
4.7507315 4.7803273 -0.58172077 0
4.7212768 4.9603682 -0.56078643 0
4.7419596 4.8260713 -0.23536649 0
4.7175441 4.955915 -0.14928207 0
5.4300709 5.2808237 -0.093139075 0
5.541328 5.4551816 -0.10821965 0
5.8221321 5.6090446 -0.13516897 0
4.8175421 4.7656765 0.18752509 0
4.8827066 4.9588146 0.17884989 0
5.2518806 5.0736141 0.15936045 0
6.2098608 6.4276571 0.079210959 0
5.3601251 4.6922545 -1.22066 0
5.2644157 4.6117878 -1.1960906 0
6.0314846 5.3426723 -1.1893779 0
7.0158272 6.282733 -0.86779588 0
6.7522078 6.0945396 -0.52214658 0
6.9854541 6.266407 -0.55509758 0
2.0419438 1.5642412 -0.066609934 0
5.7624264 5.3936024 -0.12220475 0
6.0953102 5.5695939 -0.1538958 0
6.3243394 5.6937943 -0.17594297 0
2.0446723 1.548986 0.17267816 0
5.2131371 4.8610258 0.16795672 0
5.4905581 5.0089798 0.15146616 0
5.7940755 5.1585455 0.13367586 0
6.0815525 5.283422 0.11719951 0
-3.334744 -4.4707756 -1.3030257 0
5.5973067 4.4356976 -1.2471009 0
5.6090121 4.6124945 -1.2660615 0
6.2712693 5.0213418 -1.2083707 0
6.3087535 5.1162753 -1.2199358 0
6.0913444 5.1543388 -1.1884611 0
7.0181975 5.8546133 -1.1417364 0
7.1889496 6.0455208 -1.0281376 0
7.4406581 6.241909 -0.92399293 0
7.8267779 6.3982863 -0.98567617 0
7.1077652 6.1486874 -0.56257892 0
7.455792 6.2463312 -0.60435075 0
7.8291097 6.4406319 -0.65341485 0
2.1136398 1.3742919 -0.025418738 0
6.5784907 5.6493187 -0.19301453 0
2.1903124 1.3135082 0.22542475 0
6.0364766 5.0824199 0.12615333 0
6.3361607 5.255816 0.10749392 0
6.5053835 5.3910036 0.09548296 0
-3.957165 -5.6019917 -1.3544215 0
-3.108273 -4.5679336 -1.3001214 0
5.6879191 3.8691788 -1.2045871 0
5.699831 4.0976152 -1.2312869 0
6.5509696 4.8773885 -1.2459941 0
7.517487 5.7169838 -1.2083682 0
5.6520019 3.8714838 -1.1965686 0
7.2247939 5.7408242 -1.1661302 0
7.3771348 5.7141361 -1.1865937 0
7.9027267 6.1005502 -0.97473705 0
7.8718781 6.3196516 -0.9854911 0
7.900269 6.108624 -0.64165843 0
7.8663087 6.3017349 -0.6493901 0
7.9144216 6.0678415 -0.31038031 0
-4.3185797 -6.3821974 -1.2301507 0
-3.7609062 -5.5824547 -1.3300077 0
-3.3769243 -5.4680247 -1.2683725 0
-2.7977643 -4.8230314 -1.2905678 0
-2.5770814 -4.655292 -1.2664841 0
5.7835345 3.672533 -1.2083493 0
6.0030499 3.7565951 -1.2716234 0
6.9430089 4.6794887 -1.3073114 0
7.8273683 5.515305 -1.2443944 0
5.6882348 3.2347722 -1.0441147 0
5.7608581 3.4109502 -1.0503204 0
7.9983544 5.728713 -0.95953685 0
5.8516803 3.4268751 -0.73755586 0
8.0328131 5.496974 -0.62061805 0
7.9971642 5.733315 -0.62985802 0
8.0352068 5.5075469 -0.29600552 0
7.9784398 5.7562089 -0.30217728 0
-4.0486584 -6.8223658 -1.2463657 0
-4.0968308 -6.6401472 -1.2562766 0
-3.414691 -5.7982125 -1.2956232 0
-3.1356583 -5.6758633 -1.2609013 0
-2.8152623 -5.4842472 -1.2231524 0
-2.5437336 -4.9103427 -1.2710913 0
-2.2808106 -4.8847356 -1.2736409 0
6.035511 3.448772 -1.25069 0
6.142951 3.5856805 -1.2898382 0
7.0256686 4.1671085 -1.2793727 0
7.1767554 4.4248924 -1.3336973 0
8.0536566 5.3042459 -1.2661201 0
8.3785477 5.3253999 -1.3242651 0
5.3962059 2.3890545 -0.91999501 0
5.5387626 2.6608791 -0.96585804 0
5.6781888 3.004698 -1.0143846 0
5.8230081 3.2696462 -1.0525031 0
8.0650454 5.3759632 -0.94421309 0
6.0211673 2.9785044 -0.7433598 0
5.9487357 3.1699288 -0.73973501 0
8.0724077 5.4098229 -0.62005669 0
-4.9785748 -8.1383944 -1.2079778 0
-4.857996 -8.1470156 -1.2008718 0
-3.899682 -6.9692707 -1.2634429 0
-3.773433 -6.8878679 -1.2748899 0
-2.8640575 -5.7982183 -1.2465498 0
-2.543669 -5.6646104 -1.2097727 0
-2.276531 -5.5864706 -1.2072122 0
-1.9722403 -5.0857673 -1.2780249 0
-1.6950294 -4.9200306 -1.2676419 0
-1.3969899 -4.8267441 -1.2269838 0
7.3812532 4.0847034 -1.3497219 0
8.2992744 5.1328392 -1.2958705 0
8.5772219 5.1407533 -1.3457156 0
9.8253708 6.1121783 -1.2439145 0
-2.3745327 -5.5147266 -1.1976305 0
-0.098130435 -3.5450263 -0.85715711 0
0.034881383 -3.3815308 -0.81498492 0
5.3593774 1.9028761 -0.98326576 0
5.4099073 2.1866431 -0.94483525 0
5.5403647 2.4249043 -0.93487692 0
-0.093990654 -3.5446815 -0.67090982 0
0.14590636 -3.2507548 -0.67760497 0
0.37716416 -3.0005867 -0.64514893 0
0.63647079 -2.6516285 -0.64281279 0
0.92367005 -2.3642011 -0.58768737 0
1.1432298 -2.2172513 -0.56894588 0
2.0218551 -1.4548073 -0.50351381 0
5.3736033 1.9141214 -0.78180468 0
5.3489966 2.0926964 -0.79003352 0
6.1008143 2.7417958 -0.74846506 0
-4.788826 -8.4446964 -1.2084173 0
-4.6643662 -8.2633305 -1.204789 0
-3.7026498 -7.1405458 -1.2754681 0
-3.4284201 -7.1037169 -1.2726365 0
-3.1225402 -7.0477362 -1.2593353 0
-2.1568918 -5.9033914 -1.2191126 0
-2.0776875 -5.8048706 -1.2411731 0
-1.6964554 -5.1882801 -1.2760012 0
-1.4216012 -5.1653843 -1.2549413 0
-1.1819822 -4.9434824 -1.2367729 0
8.8362246 4.8571968 -1.3718666 0
9.9693766 5.7676058 -1.2417475 0
9.9566698 5.9606247 -1.2528719 0
-6.1147609 -9.8182859 -1.0519805 0
-5.9965267 -9.7852488 -1.0415119 0
-4.4017115 -8.2670507 -1.1885247 0
-4.1843791 -8.0923481 -1.1496208 0
-2.2293379 -5.791131 -1.1984211 0
-2.1555724 -5.8089113 -1.1976945 0
0.061959535 -3.7452097 -0.84367591 0
0.18449131 -3.5995855 -0.80659312 0
4.739459 0.58843035 -0.85742259 0
0.065539747 -3.7867889 -0.62220412 0
0.34105352 -3.4514868 -0.59992141 0
0.59265232 -3.1594119 -0.60412192 0
0.85074317 -2.8907051 -0.58573741 0
1.1214126 -2.6271017 -0.5730437 0
1.4430803 -2.3528206 -0.56275052 0
1.7537616 -2.0546491 -0.56703359 0
2.0180953 -1.7785897 -0.57120448 0
6.2623563 2.146924 -0.76093817 0
6.2132177 2.3521311 -0.75613141 0
0.41308525 -3.4378924 -0.29475886 0
0.4752318 -3.3512676 -0.28241801 0
14.144281 9.891717 0.22227378 0
-4.5499864 -8.55235 -1.2079854 0
-4.4171104 -8.5788727 -1.2033627 0
-3.1256859 -7.3219166 -1.2686709 0
-2.9558148 -7.2051468 -1.2786946 0
-1.9640647 -6.0605268 -1.2429326 0
-1.7146515 -6.0404739 -1.2610892 0
-1.4037479 -5.9346085 -1.2430651 0
-0.90096962 -5.1745572 -1.2679628 0
-0.49906406 -4.8740401 -1.2141048 0
-0.28553447 -4.8358107 -1.2024632 0
9.0609903 4.5837917 -1.3944653 0
10.452818 5.7882452 -1.3137072 0
10.495941 5.8722486 -1.325869 0
-5.9130502 -10.15314 -1.0823641 0
-5.7778583 -10.044947 -1.0808806 0
-4.1951742 -8.5288677 -1.1823345 0
-3.996973 -8.2469597 -1.1540042 0
-2.3753946 -6.7935462 -1.1706704 0
4.6569467 0.15327758 -0.8468774 0
4.7538209 0.41824907 -0.85428274 0
8.4281816 3.7295504 -0.91075307 0
0.25435951 -4.0394139 -0.54789317 0
0.55991399 -3.7222142 -0.48966628 0
1.0989269 -3.1328416 -0.55831677 0
1.4513124 -2.9044566 -0.56077862 0
1.6681067 -2.6736155 -0.56630576 0
1.9985172 -2.0971262 -0.57235742 0
2.1513293 -1.9837759 -0.57047796 0
5.0991311 0.42232078 -0.75919366 0
5.118834 0.53543442 -0.75856197 0
6.2967916 2.0345724 -0.7582528 0
0.55360472 -3.6628556 -0.29285544 0
14.180842 9.3751879 0.22662668 0
14.155182 9.6264505 0.22418194 0
-3.7243781 -8.6373463 -1.2050685 0
-2.8501561 -7.4535532 -1.2763422 0
-2.6867692 -7.4730043 -1.2894276 0
-1.4475235 -6.2468204 -1.2613343 0
-1.210205 -6.0926476 -1.2620403 0
-0.65602624 -5.3740377 -1.2835783 0
-0.30779752 -5.1125641 -1.2094256 0
-0.23054418 -4.8521757 -1.2068511 0
10.560012 5.5728045 -1.316716 0
10.999319 5.6564178 -1.3881173 0
12.762098 7.4140735 -1.2404488 0
12.749317 7.6052675 -1.2498931 0
-5.6669316 -10.354403 -1.0940338 0
-5.4819121 -10.347249 -1.0955552 0
-3.8056769 -8.5383577 -1.1694896 0
-2.2088284 -7.0066676 -1.1750982 0
-2.1092634 -6.9111567 -1.1810243 0
-0.13349542 -5.0764666 -1.1991264 0
4.6359439 -0.18982989 -0.84182477 0
4.6773925 -0.089322627 -0.84864998 0
8.1274891 2.9282496 -0.83714783 0
8.2882547 3.2355278 -0.86902648 0
8.4420223 3.5500355 -0.90073496 0
0.92228711 -4.0026379 -0.56608069 0
1.1761152 -3.7881799 -0.57069218 0
1.4421015 -3.7351732 -0.57507485 0
1.7071632 -2.9404781 -0.56445688 0
1.8263274 -2.8895016 -0.56539673 0
2.6562171 -2.3491156 -0.59909123 0
5.0260291 -0.10460955 -0.75760806 0
5.1140409 0.1654951 -0.75714225 0
5.2112517 0.42204326 -0.75333953 0
7.8969321 2.6567326 -0.79641002 0
14.229745 8.8343925 -0.33749115 0
14.259717 8.8825655 -0.34243909 0
14.249631 8.792387 0.23077787 0
14.229976 9.0432558 0.22785877 0
-3.633204 -8.889287 -1.2045488 0
-3.448441 -8.8546953 -1.2143573 0
-2.3382068 -7.6472778 -1.304786 0
-1.9364041 -7.556529 -1.2975821 0
-0.91427028 -6.2990332 -1.2784958 0
-0.57641375 -6.0078778 -1.2414798 0
11.080381 5.1762552 -1.375805 0
11.099581 5.3965931 -1.3873724 0
12.78834 6.8560848 -1.2161245 0
12.799483 7.1165295 -1.2297078 0
-5.3821025 -10.61418 -1.1007544 0
-5.207911 -10.546447 -1.1021967 0
-4.7672062 -10.155995 -1.0439321 0
-3.627492 -8.833684 -1.1959126 0
-2.0346689 -7.1506872 -1.1785896 0
-1.9306418 -7.1694565 -1.1779159 0
7.990624 2.396584 -0.80363071 0
8.1599522 2.7724447 -0.83068961 0
13.581323 7.6404123 -0.80933869 0
13.681215 7.8610716 -0.82518721 0
1.1352563 -4.0530195 -0.56588691 0
1.381739 -4.0050011 -0.56963271 0
1.693206 -3.779768 -0.57835943 0
2.0702665 -3.552546 -0.58639586 0
2.2926371 -3.4724159 -0.59083158 0
2.7152796 -2.5335815 -0.60214305 0
5.0585504 -0.27967626 -0.75562358 0
7.9710364 2.3966289 -0.79494452 0
14.148777 8.2011166 -0.31975609 0
14.2908 8.5795488 -0.33423224 0
14.338759 8.7916813 -0.34400341 0
14.318757 8.6978016 0.23263077 0
14.362628 8.7866793 0.22478604 0
15.11948 9.0317745 0.21165818 0
-3.1975851 -9.0616026 -1.2167938 0
-2.9415045 -8.9042063 -1.209967 0
-1.8958958 -7.8934317 -1.3151091 0
-1.6866103 -7.6917419 -1.2798927 0
-1.500888 -7.4997053 -1.2700998 0
-0.61147654 -6.3274841 -1.2579517 0
-0.30670127 -6.2273912 -1.2463995 0
-0.22087726 -6.0678325 -1.2536013 0
11.229973 4.9914007 -1.3858192 0
11.386124 4.9882212 -1.4119493 0
12.856314 6.6075411 -1.2125108 0
-5.0676565 -10.864978 -1.1141357 0
-4.9897017 -10.809287 -1.1041943 0
-4.5617623 -10.451808 -1.0583458 0
-4.1173859 -10.136975 -1.0145358 0
-4.09866 -10.083141 -1.007499 0
4.1916714 -2.1035209 -1.0352237 0
4.3577466 -1.8790202 -1.033625 0
4.6203361 -1.5759037 -1.0453777 0
4.7465634 -1.4222887 -1.0522906 0
12.777544 6.3240471 -1.1910926 0
12.808202 6.4145532 -1.1984689 0
13.561245 7.4868584 -0.80188209 0
1.9670638 -3.8575015 -0.5802387 0
2.2603757 -3.7473326 -0.58422649 0
2.5597949 -3.4731255 -0.58929199 0
2.8542132 -3.249222 -0.58698881 0
3.1618567 -2.9508057 -0.59268039 0
3.4397686 -2.7165 -0.58378869 0
3.7852516 -2.4670649 -0.60396224 0
4.1025314 -2.2083232 -0.61504 0
4.360744 -1.9002428 -0.61667109 0
4.6113009 -1.5837412 -0.62159139 0
4.7942266 -1.3736668 -0.63042879 0
6.1986952 -0.1688934 -0.79394656 0
6.3188963 0.13488907 -0.79142118 0
6.3102317 0.41584772 -0.7907204 0
13.494093 7.1446733 -0.78496355 0
13.540344 7.3939981 -0.79592937 0
14.123955 7.6890812 -0.30750871 0
14.119993 7.9582405 -0.31290412 0
15.16254 8.778882 0.21618687 0
-2.9391098 -9.1868334 -1.2178171 0
-2.6780486 -9.1483068 -1.2217888 0
-1.4136485 -7.7302303 -1.2685115 0
-1.185784 -7.7229986 -1.2844447 0
-0.73392689 -7.3585615 -1.2313271 0
-0.43628868 -7.2299862 -1.2040615 0
11.460362 4.7584167 -1.4078032 0
11.482144 4.8575602 -1.4219967 0
13.111672 6.204082 -1.2245617 0
-8.0176916 -14.50257 -1.053645 0
-4.3451414 -10.734962 -1.0727447 0
-3.9593272 -10.414528 -1.0323269 0
-2.2371664 -8.8151751 -1.1715214 0
-1.9552277 -8.6874962 -1.143586 0
-0.38851723 -7.0859251 -1.1758391 0
-0.32825074 -7.0791402 -1.1743667 0
4.3357873 -2.2593846 -1.0312458 0
4.5033736 -2.0345206 -1.0312456 0
4.7492843 -1.7470317 -1.0434256 0
12.863813 6.2200756 -1.1941789 0
13.812486 6.9279556 -0.80478626 0
1.5455114 -5.1873946 -0.60243523 0
1.7241501 -5.0242119 -0.58532447 0
3.0988071 -3.2789295 -0.5886907 0
3.3018253 -3.1364615 -0.59032637 0
3.6739883 -2.8480816 -0.59452188 0
3.9556947 -2.6260076 -0.60228825 0
4.2567821 -2.3647995 -0.61231488 0
4.5090275 -2.0521941 -0.61400944 0
4.758215 -1.7328534 -0.61991996 0
4.9233875 -1.5462599 -0.62897021 0
6.1754975 -0.65664035 -0.79107243 0
6.2196326 -0.40739924 -0.79128379 0
6.3439393 -0.13271028 -0.79015237 0
13.773983 6.8893566 -0.79664814 0
14.204048 7.1988177 -0.29872987 0
14.19514 7.3385172 -0.30415869 0
15.185898 8.4295416 0.21822065 0
15.430576 8.4762154 0.21458153 0
-2.4382844 -9.3876734 -1.2303638 0
-0.9199487 -7.9354486 -1.2978212 0
-0.5270654 -7.6016636 -1.2394017 0
-0.33194789 -7.4449797 -1.2293848 0
6.1000628 -1.3427267 -1.3636303 0
13.537216 6.0461793 -1.267019 0
13.556497 6.1867757 -1.2774627 0
-7.8035331 -14.981429 -1.0833507 0
-7.8918734 -14.734345 -1.0670847 0
-7.4618807 -14.286296 -1.03067 0
-7.248868 -14.247104 -1.0197842 0
-3.9814005 -10.979005 -1.0955753 0
-3.8246613 -10.811617 -1.0686477 0
-2.2098999 -9.2075663 -1.1949307 0
-2.0145173 -9.0616846 -1.1664395 0
-1.74005 -8.8852491 -1.147261 0
-1.3825475 -8.4443235 -1.0925989 0
-1.2237989 -8.4421272 -1.0895839 0
-0.17683133 -7.3381844 -1.1823674 0
-0.28317294 -7.1087561 -1.1800711 0
14.111191 6.4977751 -0.8151018 0
14.137383 6.7653251 -0.82568359 0
1.2038282 -5.981267 -0.69021827 0
1.4007393 -5.7346301 -0.65907681 0
1.6166359 -5.4402647 -0.61551964 0
1.9914039 -5.1703539 -0.58833474 0
2.2738049 -4.9200439 -0.5981586 0
2.6006515 -4.7897491 -0.59897012 0
14.285227 7.0849586 -0.30043581 0
-1.5708028 -9.1253271 -1.2035216 0
0.0065068305 -7.6504269 -1.2684803 0
0.16402379 -7.6184292 -1.2810745 0
6.2799621 -1.5337071 -1.3230916 0
6.5523591 -1.4743693 -1.2142895 0
6.8135934 -0.95888287 -1.2067411 0
13.697243 5.8637338 -1.278011 0
-7.6031413 -14.847264 -1.0651116 0
-7.157558 -14.625541 -1.0390582 0
-7.0452971 -14.51172 -1.0231669 0
-3.6484704 -11.263339 -1.1201636 0
-3.6311483 -11.150279 -1.0990596 0
-3.1570768 -10.770461 -1.0544726 0
-1.5662175 -9.1927404 -1.1886148 0
-1.134451 -8.7039785 -1.0907745 0
-0.9585973 -8.6267195 -1.1012359 0
6.5111899 -1.5793562 -0.94442075 0
6.598362 -1.3745985 -0.94137138 0
6.78407 -1.0267825 -0.93703586 0
8.0369463 0.081832349 -0.82012022 0
14.096663 6.0227108 -0.80298609 0
14.100435 6.2537813 -0.8071261 0
2.2539594 -5.1984625 -0.59499109 0
2.4717345 -5.1176863 -0.59579015 0
2.8535819 -4.8860893 -0.59894383 0
3.0982437 -4.6574483 -0.60199642 0
3.3518629 -4.4412589 -0.6050936 0
14.110691 5.9819427 -0.79748005 0
-1.38545 -9.380662 -1.2019479 0
0.22213355 -7.8755732 -1.2816057 0
6.4503698 -2.1021457 -1.2246751 0
6.5201421 -1.8318589 -1.218716 0
6.6745353 -1.6421356 -1.2131171 0
14.161282 5.3191957 -1.3181214 0
14.201718 5.5683894 -1.3270566 0
-6.8866677 -14.940755 -1.0575186 0
-3.4353385 -11.567694 -1.1334685 0
-2.8967505 -11.000997 -1.0578767 0
-2.6542683 -10.910953 -1.0609998 0
-0.74318516 -8.8717718 -1.122346 0
6.441834 -2.0992255 -0.95337379 0
6.5151396 -1.8389599 -0.94692612 0
6.6946502 -1.5329952 -0.93709177 0
8.0854406 -0.11885363 -0.81900012 0
14.171587 5.7500143 -0.80333841 0
3.3471766 -4.7237334 -0.6009329 0
3.51121 -4.6407189 -0.6029709 0
14.195019 5.7051883 -0.79730785 0
-0.59155905 -9.3084784 -1.2159121 0
-0.35700426 -9.278327 -1.2146844 0
14.086535 4.8335328 -1.2913735 0
14.131893 5.1360779 -1.3047245 0
-6.6433253 -15.250892 -1.0664068 0
-6.5142236 -14.946385 -1.0518409 0
-6.1128297 -14.645333 -1.0146348 0
-5.6900458 -14.426974 -0.98406708 0
-5.3523507 -14.24331 -0.95925504 0
-2.6003313 -11.139318 -1.0589352 0
-2.3565912 -11.08487 -1.0611254 0
-0.35250291 -9.0904589 -1.1718377 0
-0.062444776 -8.8834572 -1.1521353 0
-0.36321124 -9.5450449 -1.2170786 0
-0.13212547 -9.5138559 -1.2116919 0
14.091368 4.4259524 -1.2792984 0
14.083751 4.5660172 -1.2828597 0
-6.4072447 -15.35903 -1.0656456 0
-6.1655493 -15.152584 -1.0411072 0
-5.8303313 -14.931339 -1.0126719 0
-5.4466138 -14.725064 -0.98444051 0
-5.1366181 -14.371864 -0.95525813 0
-5.0146737 -14.333262 -0.95784837 0
-2.1788611 -11.638421 -1.1393762 0
-2.1277943 -11.290891 -1.071889 0
-1.1669546 -10.552846 -0.99237281 0
-0.023207277 -9.2763777 -1.174067 0
0.21519795 -9.092864 -1.1662804 0
0.51301086 -9.0201731 -1.1777614 0
-4.8260155 -14.593952 -0.95687133 0
-4.8004723 -14.518801 -0.96816742 0
-1.9710647 -11.825198 -1.1366981 0
-1.7855817 -11.681897 -1.1383207 0
-0.93219101 -10.764265 -0.99460459 0
-0.66172516 -10.626711 -0.99784231 0
0.51165426 -9.2585707 -1.1743888 0
0.77692688 -9.1539135 -1.1786928 0
-4.583385 -14.784453 -0.96702302 0
-4.5001383 -14.846808 -0.97036272 0
-1.7835556 -11.939524 -1.1402938 0
-1.5273567 -11.914504 -1.1363473 0
-0.65350497 -10.894547 -0.99996209 0
-0.43935403 -10.890353 -0.99853116 0
0.99308765 -9.2479048 -1.1790911 0
16.278027 4.6400204 -1.5487385 0
-4.792747 -15.891423 -1.0843575 0
-0.21191558 -11.470042 -1.1006404 0
17.623749 5.9234681 -1.0960904 0
17.606203 5.9082103 -0.45022541 0
17.640009 6.0916395 -0.45340863 0
15.945112 3.7229958 -1.4946787 0
16.388288 4.3369069 -1.5536543 0
16.308928 4.5326114 -1.5483048 0
-4.5727248 -16.035542 -1.0865134 0
-4.3852296 -16.073835 -1.0911425 0
-3.5987368 -15.343898 -1.0135021 0
-0.2900258 -11.849636 -1.1319003 0
0.019955546 -11.699522 -1.0978448 0
0.083934695 -11.472165 -1.101311 0
17.519453 5.3594642 -1.071942 0
17.579359 5.6568055 -1.0845673 0
17.483524 5.328495 -0.43643051 0
17.564335 5.6880021 -0.44330385 0
15.819981 3.1087904 -1.4711357 0
15.996 3.4420538 -1.4910308 0
15.997614 3.671658 -1.4884162 0
16.524004 4.1681337 -1.5609521 0
-4.3025999 -16.284502 -1.0887886 0
-4.1482162 -16.123962 -1.0875813 0
-3.3497987 -15.624761 -1.0140243 0
-3.2699924 -15.274303 -0.99985158 0
-2.9667726 -15.214002 -0.99214971 0
0.19904557 -11.670376 -1.0945845 0
0.43581763 -11.712943 -1.1176097 0
0.82372367 -11.596421 -1.1211239 0
17.522402 5.0906143 -0.43553251 0
11.966254 -1.0700884 -1.4626213 0
15.919662 3.0610533 -1.4698743 0
16.056042 3.1908965 -1.4880761 0
-3.9381328 -16.383617 -1.0900602 0
-2.9625382 -15.514647 -1.0008574 0
-2.7635665 -15.411121 -0.99641925 0
0.7738446 -11.880002 -1.130005 0
1.065781 -11.749757 -1.1318737 0
1.3396405 -11.646806 -1.1334394 0
1.1868337 -11.771302 -0.20929828 0
1.3963264 -11.505841 -0.19651143 0
1.643186 -11.147767 -0.17937955 0
1.8748206 -10.801991 -0.16311423 0
2.2245297 -10.55803 -0.14663611 0
2.3477697 -10.386261 -0.14600249 0
1.4903582 -11.435706 0.26291513 0
1.7126054 -11.225753 0.26622498 0
2.0007653 -10.921596 0.27096677 0
2.246892 -10.528296 0.27951351 0
2.412082 -10.391622 0.28176159 0
6.3708463 -7.2933378 -1.2468489 0
6.5816274 -7.049336 -1.2365407 0
6.8292398 -6.7918434 -1.2297446 0
12.065378 -1.6300673 -1.4981118 0
12.082733 -1.3938923 -1.485889 0
-2.5244789 -15.794187 -1.0165737 0
-2.5827208 -15.581237 -0.99876022 0
1.3098787 -11.985977 -1.1423256 0
1.6031522 -11.773829 -1.1484089 0
16.924273 3.0447359 -0.99259633 0
0.84036863 -12.326114 -0.23701753 0
1.0499414 -12.178604 -0.22600599 0
1.3457788 -11.97874 -0.21021491 0
1.6463064 -11.687766 -0.19304281 0
1.8497328 -11.371623 -0.17787595 0
2.0573192 -11.039456 -0.16217835 0
2.5388026 -10.830367 -0.15604553 0
2.590368 -10.649983 -0.15724583 0
0.91588819 -12.460937 0.24533674 0
1.1336297 -12.205755 0.24968632 0
1.3004473 -11.974978 0.25359777 0
1.6154107 -11.715512 0.26200283 0
1.9538268 -11.393291 0.26793233 0
2.1748943 -11.113932 0.27109104 0
2.3990755 -10.796308 0.2781353 0
2.6625705 -10.690576 0.2751168 0
5.9455938 -8.0170879 -1.3026375 0
6.2168345 -7.7809563 -1.2782923 0
6.4452143 -7.4857345 -1.252564 0
6.7494678 -7.2016969 -1.2347995 0
7.0535626 -6.901298 -1.234277 0
7.3465858 -6.6924181 -1.2683948 0
7.6346679 -6.5490947 -1.2867101 0
10.725111 -3.6230493 -1.4160111 0
10.82004 -3.3448508 -1.4017378 0
11.015619 -3.0048656 -1.4037012 0
11.252113 -2.7529688 -1.4242361 0
11.680387 -2.6800313 -1.4983197 0
12.013668 -2.234468 -1.5181389 0
12.120312 -1.9277649 -1.5111012 0
-2.4496684 -16.341705 -1.0836025 0
1.843973 -11.968774 -1.1556727 0
17.016111 2.8631663 -0.99585176 0
1.0597233 -12.55255 -0.23558015 0
1.1443962 -12.439164 -0.22993615 0
2.7912369 -10.889397 -0.16179711 0
2.9613886 -10.941414 -0.17537431 0
1.128559 -12.731248 0.24390738 0
1.3639911 -12.349715 0.25236192 0
1.499936 -12.281384 0.25342694 0
2.9700148 -10.941389 0.27067655 0
6.1187739 -8.1985435 -1.2998035 0
6.2347975 -8.0515308 -1.2906201 0
7.514359 -6.8281016 -1.2659531 0
7.8959165 -6.6269832 -1.298269 0
8.183198 -6.4236498 -1.3279537 0
8.5262899 -6.1189365 -1.3263077 0
8.7634125 -5.8622875 -1.3265052 0
9.1113234 -5.6696477 -1.3680377 0
10.598438 -4.1727643 -1.4371397 0
10.754737 -3.896256 -1.4222531 0
10.878467 -3.5815983 -1.4038161 0
11.929937 -2.6815763 -1.519887 0
12.040957 -2.4675055 -1.5167305 0
20.07716 5.0368199 -1.2847192 0
-8.3714418 -22.533195 -0.85019302 0
-2.2037287 -16.571594 -1.0909051 0
-1.5158607 -16.050423 -1.0497227 0
-0.8756901 -15.357917 -0.98562038 0
-0.57806838 -15.191567 -0.9701429 0
2.0592957 -12.120092 -1.1708499 0
3.2830131 -11.161492 -0.18882698 0
3.3029835 -11.170874 0.2651265 0
2.5044012 -12.656022 -1.2779312 0
8.384428 -6.5287905 -1.3302606 0
8.5328522 -6.3600044 -1.3296943 0
9.0278769 -5.8776994 -1.3407946 0
9.2729902 -5.7895265 -1.3666587 0
9.5951929 -5.5517392 -1.4008665 0
9.9129057 -5.3207693 -1.4203256 0
10.215441 -5.0605516 -1.4484533 0
10.570555 -4.7629542 -1.4750799 0
10.683352 -4.4295721 -1.4454643 0
10.778418 -4.16118 -1.4287686 0
20.166311 4.7415276 -1.2871305 0
-8.1151409 -22.765896 -0.8524456 0
-7.9084058 -22.788883 -0.85239559 0
-2.056983 -16.860647 -1.1249244 0
-1.9282991 -16.792723 -1.1014932 0
-1.2284709 -16.15694 -1.0441846 0
-1.2007886 -15.901118 -1.0347282 0
-0.62651312 -15.604491 -0.9849878 0
-0.41397962 -15.325776 -0.97078556 0
-0.22188196 -15.233977 -0.96609592 0
16.516228 0.99770731 -0.95707291 0
3.6274457 -11.38433 -0.20564634 0
3.6165786 -11.365332 0.26102641 0
2.7617979 -12.789107 -1.2822676 0
3.0498376 -12.664578 -1.2926946 0
3.455338 -12.30899 -1.2620777 0
3.6011338 -12.184075 -1.2519054 0
3.7836452 -11.84149 -1.2175901 0
10.113648 -5.3837671 -1.434454 0
10.345726 -5.1804304 -1.4481161 0
10.677186 -4.9500823 -1.4803802 0
20.249182 4.2057438 -1.2875638 0
20.329794 4.4178295 -1.2961453 0
-7.8524432 -23.028076 -0.85788608 0
-1.7611872 -17.146881 -1.1269499 0
-1.5900961 -17.036985 -1.1159645 0
-1.1347662 -16.32147 -1.0501844 0
-0.94641936 -16.165934 -1.0355659 0
-0.036401838 -15.425541 -0.96832335 0
16.706068 0.53291219 -0.97088224 0
16.646355 0.72955412 -0.965415 0
3.9713817 -11.616593 -0.2225146 0
3.9480696 -11.588203 0.25605968 0
4.1023498 -11.66026 0.25032216 0
2.9876609 -12.885488 -1.2846425 0
3.2940812 -12.831796 -1.2921436 0
3.5695052 -12.573829 -1.2723687 0
3.8184824 -12.387498 -1.2500232 0
3.9944611 -12.039186 -1.2150573 0
2.5803699 -13.561557 -0.83630776 0
2.6614308 -13.346578 -0.83084017 0
2.9166365 -13.279309 -0.82936656 0
16.738207 0.38354295 -0.97107863 0
16.833097 0.50195879 -0.97254455 0
4.1686382 -11.956722 -0.72074407 0
4.2053323 -11.805708 -0.22803737 0
4.361918 -11.840915 -0.24383533 0
4.1778083 -11.756205 0.25463015 0
4.3656635 -11.83702 0.24830045 0
4.5803609 -12.11569 -1.279731 0
-6.414083 -23.107021 -0.84928608 0
2.889492 -13.559237 -0.8293305 0
3.1777225 -13.481729 -0.83832407 0
4.4811068 -12.186158 -0.74835074 0
4.6516547 -12.044875 -0.25198972 0
4.6549706 -12.044845 0.24575098 0
5.0190244 -12.305172 -1.3104714 0
5.3014026 -12.036314 -1.2970119 0
7.1608615 -10.40626 -1.2255722 0
7.3339438 -10.136633 -1.2088544 0
15.787539 -1.9661331 -1.5023586 0
15.821775 -1.8034029 -1.492506 0
-6.1808343 -23.074539 -0.84457123 0
-5.8614488 -23.061407 -0.83987552 0
3.468709 -13.723348 -0.86892611 0
7.2668557 -10.085311 -1.1990757 0
4.803278 -12.202932 -0.758955 0
4.9703431 -12.321879 -0.26670647 0
4.9351602 -12.284575 0.24180372 0
5.2623677 -12.49335 -1.3188412 0
5.5558324 -12.219035 -1.3101377 0
5.8303847 -12.069102 -1.3186152 0
7.3352008 -10.568075 -1.2316022 0
7.5642085 -10.276685 -1.2122656 0
8.5685349 -9.5385962 -1.236998 0
8.7234106 -9.4923029 -1.2443783 0
15.405775 -2.9371881 -1.4909254 0
15.881739 -2.2139478 -1.5139929 0
-5.9433532 -23.384285 -0.8480922 0
-5.5985894 -23.188206 -0.83847588 0
-5.3233018 -23.067024 -0.83385837 0
0.50643003 -17.374577 -1.162294 0
3.7766576 -14.000879 -0.89596707 0
7.4605789 -10.25649 -1.1965673 0
5.3953671 -12.570143 0.22929968 0
6.1664438 -12.185578 -1.3385011 0
6.4220099 -12.07075 -1.3523561 0
6.7380877 -11.777493 -1.3466539 0
6.9847922 -11.57463 -1.3388638 0
8.0403976 -10.616341 -1.3056276 0
8.1837902 -10.46407 -1.3001989 0
8.7564564 -9.6717138 -1.2398068 0
8.9979458 -9.5282288 -1.2540764 0
9.3785696 -9.3101482 -1.2790381 0
9.5807133 -9.1961441 -1.285048 0
9.8665419 -8.7162628 -1.2662649 0
10.15065 -8.3498354 -1.2500744 0
10.420816 -8.1225109 -1.2490727 0
15.214059 -3.7036929 -1.4969625 0
15.377906 -3.3810897 -1.4958357 0
15.501238 -3.0657244 -1.4929051 0
15.843418 -2.782907 -1.5260991 0
15.971079 -2.5740662 -1.5292602 0
-5.3398871 -23.302885 -0.83652395 0
-5.0670714 -23.199245 -0.83299309 0
-4.7826419 -23.050915 -0.82726163 0
0.73720491 -17.541309 -1.1645495 0
0.93908918 -17.405521 -1.1667393 0
1.3733882 -17.037956 -1.1371329 0
1.5238684 -16.925516 -1.1284251 0
4.0905771 -14.260982 -0.92492121 0
16.606989 -2.3706479 -1.0048081 0
9.9612398 -8.6449785 -0.75982392 0
10.156732 -8.3866014 -0.75608742 0
10.459177 -8.1546888 -0.75258368 0
10.480273 -7.884552 -0.74692631 0
5.2630191 -12.883917 -0.3151477 0
5.5651011 -12.875846 -0.31270805 0
5.6691947 -12.776958 0.22723669 0
10.854035 -7.9157019 0.24439755 0
6.6445689 -12.159881 -1.3499286 0
6.9143662 -11.996318 -1.3471433 0
7.2541442 -11.712787 -1.3447815 0
7.5534825 -11.515368 -1.3504506 0
8.2260008 -10.755756 -1.2996763 0
8.3782759 -10.617194 -1.2964534 0
8.7572966 -10.364416 -1.3314425 0
8.9621744 -10.286012 -1.3389366 0
9.2663765 -9.5642757 -1.2614741 0
9.5155487 -9.4756927 -1.2734067 0
9.8230534 -9.2091303 -1.2882253 0
10.042652 -8.9100533 -1.2668771 0
10.173919 -8.6573229 -1.2564337 0
10.733342 -8.1531782 -1.2647409 0
11.084951 -8.1077385 -1.3190191 0
11.248166 -7.9745655 -1.3106593 0
11.636999 -7.7028751 -1.3447957 0
14.533512 -4.6652775 -1.4614818 0
14.748741 -4.5666671 -1.4710854 0
15.025198 -4.2391577 -1.4862651 0
15.215908 -3.8968987 -1.4897439 0
15.451847 -3.6241412 -1.4978083 0
-4.7677341 -23.359585 -0.83318663 0
-4.4577556 -23.364529 -0.83030415 0
0.91162717 -17.683315 -1.1689126 0
1.2363981 -17.594357 -1.166821 0
1.5335859 -17.342184 -1.1481619 0
1.7810653 -17.073833 -1.1306683 0
4.3608012 -14.456708 -0.93574083 0
5.9632854 -13.043532 -0.88865978 0
6.1657367 -13.024984 -0.89410001 0
16.727892 -2.5415988 -1.0084898 0
16.768492 -2.2700772 -0.99944729 0
10.142288 -8.7868319 -0.75640446 0
10.453839 -8.4862328 -0.75767422 0
10.608922 -8.3176041 -0.75764513 0
5.9124761 -12.972187 -0.31643224 0
10.636843 -8.7075605 -0.28442851 0
10.723813 -8.5747862 -0.28290954 0
11.440068 -7.8062143 -0.28436831 0
11.511751 -7.7962523 -0.28693348 0
5.8856058 -12.939147 0.21892361 0
6.0538182 -13.03553 0.21886897 0
10.537163 -8.8459349 0.23694618 0
10.742001 -8.3606482 0.24300939 0
10.984015 -8.0763903 0.24468356 0
11.180801 -7.934351 0.24578707 0
8.9508057 -10.514451 -1.3277901 0
11.242691 -8.2495308 -1.3196334 0
11.544375 -7.9906416 -1.3379353 0
11.778658 -7.8078623 -1.3440747 0
12.12134 -7.5743256 -1.3676144 0
12.387912 -7.2911396 -1.3738737 0
12.674975 -7.0190792 -1.3876824 0
12.924786 -6.8748665 -1.3953273 0
13.333305 -6.6584549 -1.414526 0
13.715466 -6.2679019 -1.4586622 0
13.93738 -5.9889889 -1.4658821 0
14.117701 -5.8694668 -1.4784827 0
14.771736 -5.0063596 -1.4942102 0
14.920897 -4.5844579 -1.4764233 0
15.19619 -4.3217936 -1.4962419 0
-4.3879085 -23.475235 -0.83541971 0
2.1074328 -17.316109 -1.1565048 0
2.3951154 -17.302406 -1.1697626 0
6.3687348 -13.219928 -0.89252818 0
9.2198286 -10.631337 -0.84828728 0
9.2793474 -10.427808 -0.83743656 0
9.5645695 -10.208379 -0.83806473 0
12.68954 -6.9965305 -0.83981615 0
12.86818 -6.7511106 -0.85309458 0
15.406905 -4.4666853 -0.95978189 0
15.565329 -4.2252917 -0.96044672 0
15.808058 -3.9444094 -0.96585035 0
16.443613 -3.1411982 -1.0081289 0
16.715839 -3.0645213 -1.0193827 0
16.832273 -2.841424 -1.0232154 0
23.65778 3.5883732 -0.73869509 0
6.4069819 -13.052378 -0.34588936 0
8.3856392 -11.401499 -0.31878087 0
10.698595 -8.9268007 -0.28512907 0
10.952552 -8.7060137 -0.28317073 0
6.3090749 -13.195632 0.2160738 0
