# .PCD v0.7 - Point Cloud Data file format
VERSION 0.7
FIELDS x y z intensity
SIZE 4 4 4 4
TYPE F F F F
COUNT 1 1 1 1
WIDTH 1395
HEIGHT 1
VIEWPOINT 0 0 0 1 0 0 0
POINTS 1395
DATA ascii
-13.022161 0.34874034 -1.1405425 0
-14.776209 1.3541152 -1.1899062 0
-14.832994 1.631202 -1.1910639 0
21.873535 -22.950891 -0.79988581 0
21.693674 -22.679651 -0.65669012 0
21.520189 -22.559959 -0.640589 0
20.991358 -22.159317 -0.60498214 0
20.78406 -22.203436 -0.62119561 0
20.035444 -21.32604 -0.53667057 0
19.66707 -21.396414 -0.42797396 0
19.220034 -21.131601 -0.425161 0
19.02396 -20.864531 -0.56918883 0
18.742443 -20.740679 -0.65044242 0
18.484558 -20.43458 -0.67012405 0
17.033649 -19.546751 -0.49573478 0
16.714035 -19.427258 -0.61366308 0
16.263031 -18.866827 -0.58048511 0
15.689823 -18.485586 -0.46707109 0
15.419748 -18.333765 -0.47343567 0
15.085337 -18.147238 -0.48220614 0
14.74192 -17.901371 -0.48802525 0
14.349142 -17.81201 -0.51069826 0
13.360308 -16.982946 -0.61335129 0
13.018209 -16.703791 -0.69121253 0
12.762213 -16.543875 -0.52817059 0
12.414965 -16.416571 -0.59286219 0
12.056458 -16.195259 -0.68187678 0
11.753996 -15.977022 -0.65432519 0
11.429792 -15.761788 -0.62670153 0
10.981602 -15.5477 -0.62371767 0
10.754745 -15.321103 -0.70055437 0
10.15687 -15.234481 -0.6322822 0
9.9687366 -15.045588 -0.64653754 0
9.6126556 -14.80515 -0.67812854 0
9.3379536 -14.551177 -0.70094609 0
8.9197083 -14.389035 -0.74308908 0
8.6132889 -14.07557 -0.76914793 0
8.2749367 -13.857096 -0.67294174 0
7.937161 -13.572434 -0.65132403 0
7.7323461 -13.34636 -0.61266214 0
5.1750255 -11.556687 -0.79085463 0
3.0294902 -10.084998 -0.75754756 0
2.9038091 -9.9914436 -0.77035427 0
-0.29032254 -7.993948 -0.78569251 0
-0.39699054 -7.826067 -0.79505169 0
-1.2306914 -7.4923687 -0.55581355 0
33.333576 -30.444387 -0.15472786 0
23.102497 -23.530254 -0.33745587 0
22.690845 -23.240629 -0.18050537 0
21.399445 -22.312187 -0.25583625 0
21.015377 -22.235477 -0.26833859 0
20.73064 -22.231594 -0.28265324 0
20.071239 -21.381582 -0.38477814 0
19.751146 -21.285757 -0.38421336 0
19.324762 -21.102262 -0.37274528 0
19.037413 -20.970968 -0.35959592 0
18.714886 -20.583738 -0.31755093 0
18.457214 -20.576258 -0.3083792 0
17.296001 -19.827784 -0.34466854 0
16.895657 -19.670736 -0.16024581 0
16.662334 -19.52277 -0.36627609 0
13.356808 -17.153955 -0.085970886 0
11.713911 -16.17824 -0.18292068 0
24.424726 -24.255457 0.26406783 0
23.964417 -24.165047 0.26609966 0
18.458809 -20.331198 0.16077268 0
17.213762 -19.689306 0.33224666 0
17.049858 -19.603853 0.23908517 0
14.269457 -17.739138 0.24853268 0
14.068384 -17.706766 0.24216023 0
13.72633 -17.355539 0.24527003 0
13.163965 -17.213945 0.22735505 0
12.247925 -16.392326 0.18574229 0
11.964235 -16.278429 0.17573138 0
11.731489 -16.055515 0.1726113 0
-2.037972 -6.7293148 0.072932981 0
-2.149632 -6.6474714 0.068605497 0
23.983536 -24.014694 0.76516443 0
23.857477 -24.033943 0.76266664 0
6.2440615 -11.84179 -2.407552 0
-2.1414337 -6.2211399 -2.4271991 0
-3.0209169 -5.6246777 -2.4702036 0
28.213659 -26.513439 -2.2690001 0
27.981737 -26.551413 -2.2615643 0
23.333012 -23.120169 -2.1392434 0
14.895535 -17.464872 -2.0742702 0
11.520519 -15.259173 -2.1335502 0
11.259453 -15.216707 -2.1553028 0
10.873936 -15.143909 -2.1868746 0
10.546 -14.862468 -2.1918573 0
10.202145 -14.694524 -2.2109506 0
9.745903 -14.471569 -2.2374034 0
7.4271522 -12.952394 -2.3572261 0
6.7509446 -12.440633 -2.384146 0
6.5640225 -12.220481 -2.3924851 0
6.3970504 -11.992071 -2.3979757 0
0.5109458 -8.1149521 -2.0144761 0
0.19530988 -7.9989119 -2.0087056 0
0.12572646 -7.7528782 -2.0170875 0
-1.0152893 -7.0106106 -2.1785254 0
-1.3368528 -6.7706394 -2.0776074 0
21.118973 -21.646029 -1.9599489 0
16.501089 -18.63225 -1.6292224 0
15.705782 -18.38138 -1.6193146 0
11.204763 -15.091998 -1.6037254 0
11.005259 -14.920218 -1.6204594 0
10.110437 -14.695602 -1.6627142 0
9.543623 -14.154962 -1.7010523 0
5.9555993 -11.607373 -1.7982807 0
5.6973462 -11.562188 -1.7787962 0
4.7641068 -11.155864 -1.7512569 0
4.6401458 -11.0171 -1.7606192 0
3.7773576 -10.466537 -1.8411524 0
3.5466976 -10.19411 -1.8593116 0
3.4654989 -9.8736887 -1.8118025 0
2.5829165 -9.5238295 -1.8366401 0
0.84433103 -8.4040327 -1.7432338 0
0.5263505 -8.3221779 -1.8136582 0
-0.81929708 -7.094449 -1.7404219 0
-1.1237018 -7.0397234 -1.7567302 0
-1.4662457 -6.8990097 -1.7690724 0
-1.667328 -6.5517502 -1.7554103 0
-8.85429 -1.97489 -1.6596522 0
-9.0150604 -1.6892755 -1.6584923 0
-9.200901 -1.5210748 -1.6690239 0
-10.796751 -0.5749867 -1.9425317 0
-10.850374 -0.40227151 -1.9386175 0
25.265129 -24.546881 -1.3146837 0
18.851543 -20.265831 -1.3862489 0
18.209795 -19.663095 -1.2822597 0
18.095804 -19.684175 -1.295344 0
17.461708 -19.449934 -1.3326281 0
17.435024 -19.170946 -1.3065491 0
16.787369 -18.956707 -1.2271303 0
16.322241 -18.380974 -1.3440113 0
15.565222 -18.112045 -1.3554877 0
14.908573 -17.611914 -1.3317642 0
14.546833 -17.600704 -1.4525564 0
13.79669 -17.106415 -1.4058472 0
13.519573 -16.949781 -1.4315944 0
13.065094 -16.624651 -1.4638604 0
12.884369 -16.419579 -1.4715892 0
12.563084 -16.100611 -1.3975857 0
12.253859 -15.960293 -1.437602 0
11.86916 -15.72483 -1.4365453 0
11.551716 -15.481735 -1.3894928 0
11.335215 -15.25411 -1.3784686 0
10.625954 -14.677823 -1.3759987 0
10.308222 -14.50402 -1.3142936 0
9.942564 -14.304677 -1.3502142 0
9.7406197 -14.065289 -1.3591909 0
8.7239838 -13.730802 -1.2502923 0
8.6092224 -13.583457 -1.2573057 0
7.6912627 -13.14141 -1.257584 0
7.5393376 -12.726237 -1.4024978 0
7.2626166 -12.614829 -1.383449 0
6.8643966 -12.435649 -1.314593 0
6.6170902 -12.079443 -1.3641306 0
6.3615355 -11.831286 -1.4623153 0
5.9514823 -11.666638 -1.5130366 0
5.0785866 -11.171056 -1.2150627 0
4.9986863 -11.131547 -1.2074537 0
4.3873396 -10.888615 -1.2186947 0
1.9868324 -9.3532391 -1.4675555 0
1.8726311 -9.1959553 -1.4828323 0
1.6030281 -8.8339815 -1.3386 0
1.2551835 -8.6572847 -1.3155423 0
0.96510625 -8.3905745 -1.350906 0
0.41448355 -8.2749882 -1.3956006 0
0.25042653 -8.0261097 -1.388788 0
0.059970617 -7.6193733 -1.2068267 0
-0.46273828 -7.4404383 -1.2274607 0
-1.1290059 -7.0336647 -1.2930597 0
-1.3847029 -7.0982304 -1.3132945 0
-2.1628523 -6.2723379 -1.4006637 0
-2.4329443 -6.2027187 -1.4133723 0
-2.7746172 -5.961792 -1.3615423 0
-3.0574005 -5.7222042 -1.3414378 0
-3.4287009 -5.5305805 -1.3555813 0
-3.7768428 -5.3425131 -1.3668731 0
-4.1175103 -5.1426859 -1.3598505 0
-4.478126 -4.966835 -1.3885295 0
-4.7561584 -4.7042599 -1.3698678 0
-4.9226685 -4.4803085 -1.3129581 0
-5.6528907 -4.291502 -1.428913 0
-5.77599 -4.046504 -1.404663 0
-5.9917006 -3.7190359 -1.3860464 0
-6.6014147 -3.566606 -1.5337129 0
-6.7891345 -3.3948889 -1.5389036 0
-7.0670085 -3.3289084 -1.5631843 0
-8.1796722 -2.4988728 -1.3368121 0
-8.3866558 -2.1809952 -1.3425205 0
-8.7830486 -2.0223041 -1.4142089 0
-9.1558342 -1.813483 -1.4929307 0
-9.5399361 -1.5795786 -1.3952132 0
-9.7776299 -1.3433549 -1.3155859 0
-10.040186 -1.113312 -1.3361132 0
-10.610214 -0.91795611 -1.4648259 0
-10.741404 -0.65977263 -1.4010969 0
-11.163479 -0.41131568 -1.4811136 0
-11.513977 -0.18632674 -1.3118446 0
-11.577385 -0.0079877377 -1.2472087 0
-12.177069 0.1443398 -1.2129039 0
-13.58703 1.0420668 -1.2043253 0
-16.729702 3.2131112 -1.2149873 0
30.20789 -27.957512 -1.113168 0
29.235779 -27.139526 -0.9204939 0
23.980789 -23.509535 -0.83149672 0
23.64875 -23.300463 -0.81499767 0
23.224894 -23.177694 -0.96538335 0
23.006891 -23.091066 -1.0251296 0
19.509703 -20.536737 -1.0349678 0
19.440744 -20.51528 -1.0376903 0
18.980217 -20.168848 -0.97909814 0
18.604753 -20.189913 -0.9450559 0
18.178347 -20.043938 -0.92085928 0
17.506536 -19.504068 -0.82170087 0
16.896544 -18.777636 -1.1997672 0
16.551304 -18.749346 -1.1371789 0
16.174154 -18.568554 -0.8449772 0
15.860128 -18.284563 -1.0814843 0
15.45775 -18.162527 -1.1262385 0
15.261425 -17.845493 -1.1670214 0
15.034586 -17.726974 -1.1614393 0
14.549566 -17.330091 -1.0308181 0
14.35078 -17.374645 -1.0492382 0
12.578976 -16.300135 -1.0317709 0
11.540714 -15.518628 -1.1216679 0
11.179138 -15.110351 -1.1753809 0
10.967924 -15.038432 -1.1679823 0
10.396935 -14.89722 -0.91352713 0
10.212746 -14.582328 -0.96215069 0
9.8637314 -14.371105 -1.0756674 0
9.6494503 -14.109881 -1.0292643 0
9.4928837 -13.875672 -1.1271092 0
8.8581772 -13.543419 -0.93303394 0
8.1200294 -13.216674 -1.0325342 0
7.9855943 -13.025119 -0.84739161 0
7.5439339 -12.777492 -0.98393166 0
7.1987805 -12.600144 -1.0204834 0
6.9196973 -12.339507 -1.0094641 0
6.6037998 -12.121645 -0.94944304 0
6.2245579 -11.937268 -0.91212279 0
5.8995976 -11.67035 -0.9716109 0
5.644587 -11.512372 -0.94918859 0
5.1184392 -11.21638 -1.0156255 0
4.9045272 -11.081214 -1.1743451 0
4.5474992 -10.867626 -1.1762781 0
4.2719369 -10.733653 -1.1357992 0
3.9021249 -10.417296 -1.1611396 0
3.650908 -10.048833 -1.1801572 0
2.7831981 -9.849822 -1.0360305 0
2.5905025 -9.5083189 -1.0935297 0
2.2587645 -9.3181934 -1.0427133 0
1.5119753 -8.7419767 -1.0123013 0
1.2408209 -8.6944227 -1.01941 0
0.86597943 -8.4136553 -1.0522856 0
0.54822874 -8.2022457 -1.0581238 0
0.23368263 -8.0306816 -1.0490855 0
-0.023555279 -7.8050079 -1.082064 0
-0.40521049 -7.5960989 -1.0233738 0
-0.69859171 -7.2563677 -1.0631224 0
-1.0037763 -6.9821796 -1.1542711 0
-1.1621227 -6.8190517 -1.1488358 0
-2.1046047 -6.415637 -1.1690137 0
-2.667134 -5.8849058 -1.1598188 0
-12.08617 0.33318067 -1.1960055 0
-12.968651 0.79137349 -1.1258562 0
-13.553633 1.1206906 -1.1997488 0
-13.58812 1.3842399 -1.1945436 0
-14.828207 1.9768169 -1.1856793 0
30.309052 -27.837561 -0.76650822 0
29.710712 -27.710318 -0.76566631 0
23.216181 -23.076756 -0.79819286 0
22.858538 -22.900597 -0.78554249 0
21.97716 -22.186577 -0.56009144 0
21.644152 -22.023691 -0.46780005 0
21.378151 -21.891294 -0.55940336 0
20.928286 -21.626299 -0.52533478 0
20.577343 -21.397776 -0.49204072 0
20.214331 -21.369551 -0.52892995 0
19.948105 -20.984013 -0.62607247 0
19.631166 -20.685741 -0.63410896 0
19.262377 -20.528934 -0.58744526 0
18.998857 -20.311501 -0.61755097 0
18.791134 -20.080183 -0.60212195 0
17.824558 -19.68574 -0.52933615 0
17.607161 -19.501926 -0.46697128 0
17.308424 -19.23234 -0.52945095 0
16.456568 -18.828814 -0.56465715 0
16.322309 -18.801828 -0.56732464 0
15.866137 -18.439999 -0.4514237 0
15.478241 -18.262222 -0.46353182 0
15.294895 -17.709644 -0.48035929 0
14.949564 -17.641897 -0.53481674 0
14.77729 -17.406466 -0.57130474 0
14.17387 -17.143259 -0.63145328 0
13.895973 -17.036732 -0.64348996 0
13.600063 -16.853315 -0.64582324 0
13.217793 -16.664278 -0.66323447 0
12.856827 -16.40036 -0.6443668 0
12.585136 -16.165583 -0.6533044 0
12.339285 -15.798865 -0.6746611 0
11.939871 -15.620068 -0.66728264 0
11.563519 -15.468461 -0.69630772 0
11.261803 -15.250026 -0.72058558 0
10.925602 -14.973805 -0.71951514 0
10.61062 -14.789031 -0.72039443 0
10.319139 -14.531907 -0.76527429 0
9.9544392 -14.253972 -0.78039134 0
8.6765842 -13.778602 -0.75447035 0
8.5010014 -13.579898 -0.76970237 0
8.2885132 -13.221545 -0.7860418 0
7.8488326 -13.020925 -0.63921583 0
6.3731322 -11.84107 -0.79705399 0
5.9327364 -11.643779 -0.77808309 0
5.4756217 -11.429569 -0.78016305 0
5.2658401 -11.442296 -0.78076684 0
2.9799216 -9.7291718 -0.76031286 0
-1.139694 -7.1365967 -0.55029082 0
-1.2404051 -6.8273277 -0.55889368 0
33.875324 -30.110054 -0.18281394 0
33.707062 -30.206663 -0.19125517 0
27.871119 -26.056849 -0.20537722 0
27.717607 -26.199945 -0.21332471 0
23.498329 -23.413092 -0.27286035 0
23.304737 -23.396587 -0.29684287 0
22.75416 -23.080019 -0.13685882 0
21.814939 -22.357721 -0.24019916 0
21.582375 -22.202703 -0.23774464 0
20.806507 -21.607479 -0.36893338 0
20.585855 -21.37211 -0.36350808 0
20.280291 -21.265926 -0.36995497 0
19.892593 -20.891088 -0.33266029 0
19.205711 -20.662111 -0.34388927 0
18.890226 -20.325951 -0.33721274 0
18.672226 -20.226023 -0.302407 0
18.281096 -19.856945 -0.32393283 0
17.960815 -19.6129 -0.30079061 0
17.680086 -19.340878 -0.27457309 0
12.286228 -15.821347 -0.11513899 0
11.849327 -15.472857 -0.12383752 0
11.618256 -15.444207 -0.13999876 0
24.906706 -24.087437 0.27323723 0
24.597672 -23.97394 0.2775687 0
24.334299 -23.992178 0.27580333 0
18.522964 -20.208462 0.063725367 0
17.328802 -19.284222 0.080987014 0
14.04867 -17.281324 0.26246053 0
14.000051 -17.229866 0.2629889 0
12.137527 -16.068943 0.19393851 0
-2.1036253 -6.4903412 0.070216104 0
24.10383 -23.988104 0.76764494 0
5.6075807 -11.264256 -2.4529591 0
5.4396811 -10.969995 -2.5071123 0
5.1595836 -10.708959 -2.5706222 0
4.5645537 -10.56415 -2.6633582 0
4.4128728 -10.351773 -2.6525488 0
4.22365 -10.04816 -2.6565027 0
3.7427464 -9.7559614 -2.6158359 0
3.6145434 -9.5300694 -2.6210954 0
-2.1085515 -6.1083097 -2.4202261 0
-3.0529513 -5.4582672 -2.475899 0
-3.1405685 -5.2871866 -2.4897387 0
-4.3367777 -4.5438418 -2.6681416 0
28.487854 -26.183588 -2.2394502 0
23.433044 -22.843388 -2.093663 0
15.066904 -17.472628 -2.0614424 0
-0.93531942 -6.7205257 -2.1631863 0
-1.286267 -6.5939951 -2.1264498 0
-1.5270602 -6.381176 -2.0827525 0
-3.8633852 -4.6513147 -2.3645201 0
-4.0633526 -4.5030508 -2.36691 0
22.783211 -22.325365 -1.8774869 0
21.398249 -21.608524 -1.9400774 0
21.112251 -21.434008 -1.9337437 0
20.602097 -20.767387 -1.9781427 0
20.015076 -20.63933 -1.9990073 0
19.802769 -20.411877 -1.9848856 0
19.556162 -20.178473 -1.966589 0
19.290276 -19.951328 -1.9629706 0
16.604794 -18.546263 -1.6043695 0
10.90206 -14.726711 -1.6228635 0
10.752121 -14.554063 -1.6334234 0
10.468502 -14.237468 -1.6548227 0
10.391222 -13.990502 -1.6518648 0
9.6125145 -13.902267 -1.6522062 0
6.3088441 -11.586091 -1.7757212 0
6.0640454 -11.534513 -1.7178894 0
5.8139291 -11.346044 -1.6366197 0
4.9435821 -10.711631 -1.6683596 0
4.852654 -10.458646 -1.6637509 0
4.6307158 -10.268498 -1.6783497 0
3.6486859 -9.7967348 -1.7436465 0
3.4169331 -9.6533518 -1.8204978 0
3.055506 -9.5001326 -1.7807368 0
2.6868358 -9.2505264 -1.8076699 0
2.4087813 -8.974968 -1.8302504 0
2.1209793 -8.7613907 -1.7793732 0
1.8029747 -8.5659189 -1.845723 0
1.5537169 -8.2516737 -1.8524834 0
1.0827961 -7.8797121 -1.869416 0
1.040005 -7.801198 -1.870283 0
-0.29729033 -7.1820116 -1.9837501 0
-0.43582964 -7.0434418 -1.9926406 0
-1.6862587 -6.2394361 -1.7319361 0
-1.8439564 -6.0473833 -1.7281371 0
-2.168551 -5.8103542 -1.7332577 0
-2.4464936 -5.5213575 -1.7315211 0
-9.2676163 -1.2890217 -1.6614434 0
-9.6143417 -1.0684259 -1.6889635 0
-9.8196144 -0.76921058 -1.7078706 0
-10.119024 -0.48021293 -1.714529 0
25.50367 -24.192059 -1.2794417 0
20.039001 -20.678083 -1.4762696 0
19.09684 -19.968382 -1.2693871 0
18.832188 -19.753004 -1.2436795 0
18.45591 -19.657011 -1.258431 0
17.329052 -18.964207 -1.2961357 0
17.060064 -18.784506 -1.3056169 0
16.750713 -18.435953 -1.4130212 0
16.401993 -18.376074 -1.4053363 0
16.195316 -17.984489 -1.3199203 0
15.804077 -17.743366 -1.379679 0
15.440273 -17.543648 -1.3903871 0
15.150179 -17.398745 -1.3618103 0
14.73947 -17.059105 -1.362884 0
14.461655 -16.911943 -1.3445719 0
14.017862 -16.811018 -1.3414394 0
13.799139 -16.411922 -1.3395832 0
13.553753 -16.178745 -1.3049164 0
13.11762 -16.056078 -1.3293417 0
12.878422 -15.973966 -1.3494514 0
11.100908 -14.621285 -1.2103359 0
10.861237 -14.583103 -1.3228309 0
9.9898129 -14.081578 -1.3034823 0
9.7817383 -13.788178 -1.2974049 0
9.5277233 -13.698779 -1.2297083 0
9.0846081 -13.237309 -1.2706025 0
8.8678951 -13.079192 -1.2796323 0
8.5307407 -12.796464 -1.2914845 0
8.0348167 -12.7655 -1.3449503 0
7.7436166 -12.473562 -1.3705505 0
7.4318476 -12.274769 -1.3948325 0
7.1630549 -12.180943 -1.4332006 0
6.2798285 -11.683256 -1.4122378 0
6.0723448 -11.423668 -1.4653864 0
5.8640876 -11.199925 -1.4904478 0
5.5297008 -10.857303 -1.4297606 0
5.1570716 -10.546771 -1.5284212 0
4.5534091 -10.151984 -1.4984196 0
3.1348288 -9.4243307 -1.2246066 0
2.8889859 -9.1302862 -1.246761 0
2.0567374 -8.6845551 -1.2634115 0
1.6963112 -8.5536661 -1.280929 0
1.5186291 -8.3036327 -1.2689621 0
1.1290717 -8.0796309 -1.2989436 0
0.53769875 -7.4978819 -1.3242896 0
0.15450406 -7.2947683 -1.314196 0
-0.20412922 -6.9788017 -1.4049895 0
-0.54073358 -6.8388081 -1.2628938 0
-0.83307338 -6.8165827 -1.2872475 0
-1.1375616 -6.4241867 -1.3447974 0
-1.5067472 -6.2084122 -1.3338126 0
-1.8546671 -6.0774021 -1.332159 0
-2.2455091 -5.9129066 -1.2951986 0
-2.6035383 -5.8128996 -1.3267769 0
-3.2264121 -4.9744024 -1.305611 0
-4.0411692 -4.7766066 -1.2818805 0
-4.1754799 -4.4786158 -1.3265601 0
-4.474309 -4.1900148 -1.3987051 0
-4.8004489 -3.9708586 -1.4125445 0
-4.9948378 -3.7988231 -1.4269539 0
-5.9782052 -3.3800061 -1.3486483 0
-6.1357703 -3.1245697 -1.3432418 0
-6.4769583 -2.8813045 -1.3649043 0
-6.6377993 -2.7077978 -1.3702956 0
-7.3231034 -2.6513362 -1.3011211 0
-8.5908604 -1.6766217 -1.335938 0
-8.8690414 -1.4680109 -1.3878205 0
-9.2972565 -1.2886333 -1.475894 0
-9.6074085 -0.98613858 -1.4216763 0
-9.8432579 -0.78230691 -1.3085874 0
-10.11186 -0.62062955 -1.2880081 0
-10.631151 -0.33215356 -1.4674827 0
-10.781397 -0.12804627 -1.3856781 0
-11.224869 0.11434817 -1.4618925 0
-11.507141 0.32919383 -1.2739496 0
-13.888317 1.8326833 -1.2363386 0
-14.03129 2.0732753 -1.2397442 0
29.461523 -26.813391 -0.89958417 0
24.194189 -23.489756 -0.82911259 0
23.753227 -23.010401 -0.97327274 0
23.453819 -22.864052 -0.97568566 0
20.131802 -20.625349 -1.0023283 0
19.752916 -20.517389 -1.0173796 0
19.347361 -20.285196 -1.0242668 0
18.968399 -19.930256 -0.92080432 0
17.549288 -18.844189 -1.0326725 0
17.180984 -18.765528 -1.1847508 0
16.776896 -18.567783 -1.0927786 0
15.016212 -17.236387 -1.0430046 0
14.892424 -17.158587 -1.0169345 0
13.806889 -16.40336 -1.0709813 0
13.510679 -16.162477 -1.0735672 0
13.386263 -15.962742 -1.0627259 0
12.902052 -15.824759 -1.1186768 0
11.430218 -14.835723 -1.1858604 0
11.04141 -14.701732 -1.1544797 0
10.839396 -14.420743 -1.1004508 0
10.56706 -14.194056 -1.1212667 0
10.258902 -13.928315 -1.161046 0
9.7290115 -13.813448 -1.0017493 0
9.4753723 -13.559197 -1.0123236 0
9.1820126 -13.334401 -1.0098684 0
8.8020363 -13.224056 -1.1039218 0
8.4437466 -12.902378 -1.0799402 0
8.1643047 -12.703822 -1.0477508 0
7.8327727 -12.432703 -0.82371539 0
7.68119 -12.234717 -0.83808917 0
7.0355487 -12.032804 -1.0003554 0
6.7859731 -11.894077 -0.94847214 0
6.4462686 -11.623252 -0.95251119 0
6.1131253 -11.454019 -0.9134661 0
5.8079004 -11.157482 -1.1169915 0
5.3997245 -10.931788 -1.143082 0
5.1779456 -10.769048 -1.0814049 0
4.8413749 -10.49021 -1.1216669 0
4.4935236 -10.511219 -1.1737176 0
3.3603725 -9.4340639 -1.0295804 0
3.1490359 -9.357688 -1.0191799 0
2.7668934 -9.1860142 -1.0342977 0
2.458003 -8.9771395 -1.1532304 0
2.223521 -8.7120275 -1.1253117 0
1.7871027 -8.4790144 -1.0308869 0
1.5443354 -8.3255835 -1.0511858 0
1.1300275 -8.0870762 -1.1022116 0
0.81625295 -7.8722639 -1.0828776 0
0.44062757 -7.696208 -1.1428876 0
0.045387268 -7.4761477 -1.144418 0
-0.13947773 -7.1714582 -1.1532615 0
-0.57147837 -7.0505219 -0.91118485 0
-1.2916553 -6.6103249 -1.1381345 0
-1.5798775 -6.3772106 -1.1347437 0
-1.8202356 -6.3021383 -1.1424755 0
-2.6636345 -5.6191006 -1.1593767 0
-12.013199 0.56227136 -1.1807286 0
-11.983862 0.78039336 -1.1716967 0
-12.64653 1.1384413 -1.0797585 0
-12.757029 1.1291959 -1.0940161 0
-13.605867 1.6554863 -1.1881081 0
-13.734354 1.8892162 -1.1904752 0
-14.66836 2.3056738 -1.1658067 0
30.556864 -27.482643 -0.73137373 0
28.413792 -25.953522 -0.5605616 0
28.185406 -25.963568 -0.55543888 0
27.815981 -25.866865 -0.53926796 0
26.156876 -24.43152 -0.52759427 0
25.83897 -24.27157 -0.5227502 0
25.463531 -24.26829 -0.53470206 0
25.199972 -24.167093 -0.53441769 0
23.72612 -22.991346 -0.61789268 0
23.520937 -22.828192 -0.59458268 0
23.232292 -22.698586 -0.57301497 0
22.40781 -22.063078 -0.60583657 0
22.166624 -21.946894 -0.55524451 0
21.818272 -21.727455 -0.49160835 0
21.556074 -21.779016 -0.53949708 0
21.081175 -21.113636 -0.45358658 0
20.905279 -21.213076 -0.47272864 0
20.43545 -20.627214 -0.56902432 0
20.130709 -20.686876 -0.62043625 0
19.797409 -20.453609 -0.58883965 0
19.405006 -20.365707 -0.60729825 0
18.911098 -19.885357 -0.56715435 0
17.785469 -19.093437 -0.63055813 0
17.482954 -19.061949 -0.70174092 0
16.807796 -18.354536 -0.70773619 0
16.509193 -18.046249 -0.59555733 0
16.29291 -17.954134 -0.60244155 0
15.736223 -17.574942 -0.51276165 0
15.422903 -17.555315 -0.54992867 0
15.186724 -17.30442 -0.57454664 0
14.805494 -17.14949 -0.5151335 0
14.490688 -16.897011 -0.5320878 0
14.194384 -16.628426 -0.54890931 0
13.881628 -16.322088 -0.56509399 0
13.475416 -16.207451 -0.60411251 0
13.15613 -15.972445 -0.6396988 0
12.785427 -15.905011 -0.6432842 0
12.378551 -15.429117 -0.66451699 0
12.094599 -15.468917 -0.54334152 0
11.741917 -15.221936 -0.66781443 0
11.434988 -14.840949 -0.61311823 0
11.147852 -14.743307 -0.72522217 0
10.85318 -14.397018 -0.71721303 0
10.402712 -14.339065 -0.69159973 0
10.234789 -14.052614 -0.7018078 0
9.7932529 -13.779983 -0.78805393 0
8.2007942 -12.994241 -0.79143882 0
8.1590252 -12.786107 -0.79236209 0
7.828898 -12.641782 -0.66836596 0
6.9508791 -11.800769 -0.79668182 0
6.4275517 -11.722276 -0.7866683 0
6.0552216 -11.45335 -0.76918048 0
5.7809272 -11.210187 -0.76188982 0
2.8803575 -9.4764681 -0.76962143 0
-1.2337592 -6.5283699 -0.55988693 0
-1.3025378 -6.2831135 -0.56626004 0
36.181168 -31.073013 -0.17014287 0
34.035839 -29.661127 -0.028742734 0
28.501513 -26.017418 -0.20053768 0
28.147041 -25.993979 -0.20092864 0
27.766453 -25.490086 -0.38562632 0
27.703753 -25.501678 -0.38514137 0
23.897854 -23.353142 -0.16485032 0
21.018057 -21.362856 -0.35783091 0
20.779907 -21.097237 -0.3484039 0
20.438946 -20.77195 -0.31817991 0
20.229963 -20.73147 -0.32991171 0
19.803808 -20.390266 -0.26882714 0
19.421329 -20.218256 -0.28540441 0
19.10627 -20.06007 -0.30002019 0
18.853912 -19.790564 -0.32302716 0
18.537579 -19.616804 -0.2904222 0
18.064266 -19.309134 -0.34623131 0
17.980139 -19.186453 -0.24849764 0
11.85243 -15.390687 -0.11800521 0
31.633179 -28.196577 0.0077535859 0
24.748383 -23.920427 0.28043669 0
18.700539 -19.707245 0.1003136 0
18.603664 -19.560995 0.045465741 0
17.761736 -18.855654 0.38862264 0
-1.847261 -6.1634541 0.079620115 0
2.194032 -8.4372292 -2.8827627 0
2.0769453 -8.1488199 -2.8853924 0
5.2331853 -10.480935 -2.45311 0
4.9624286 -10.261807 -2.4766614 0
4.1714139 -9.7753649 -2.6695631 0
4.0949836 -9.4843502 -2.6629682 0
3.5981367 -9.2975149 -2.610611 0
3.4796052 -9.0701447 -2.6150639 0
3.0767853 -8.7978735 -2.7718201 0
2.8578641 -8.6639423 -2.7966812 0
-2.1569986 -5.401166 -2.4077694 0
28.691483 -25.81834 -2.2020795 0
23.625134 -22.514788 -2.0437217 0
18.938158 -19.212835 -2.0056639 0
10.117699 -13.746055 -2.0673285 0
10.081751 -13.527122 -2.0526667 0
7.5840039 -11.967806 -2.2523921 0
7.5828805 -11.661105 -2.2262306 0
-0.9378171 -6.3774376 -2.1678643 0
-1.6290342 -5.6730843 -2.2941518 0
-1.9629635 -5.4272594 -2.295341 0
23.367117 -22.283625 -1.9001368 0
22.954571 -22.149019 -1.8539444 0
20.852419 -20.732534 -1.9587636 0
20.720087 -20.786156 -1.9733174 0
20.394712 -20.227398 -1.8247907 0
20.017927 -20.064793 -1.8387272 0
19.64835 -20.01981 -1.8726236 0
19.346483 -19.706226 -1.8276253 0
18.996691 -19.522345 -1.8632439 0
18.791101 -19.136221 -1.9207857 0
18.419483 -18.927561 -1.9185653 0
18.07201 -18.748745 -1.9536639 0
17.715313 -18.533661 -1.9442674 0
17.441591 -18.314348 -1.9879724 0
16.401148 -17.489357 -1.9610677 0
16.036173 -17.281603 -1.9634974 0
15.827347 -17.187727 -1.9683033 0
10.32523 -13.709592 -1.6460577 0
7.3558106 -11.672774 -1.6163088 0
6.9786687 -11.254083 -1.6994089 0
6.7047172 -11.394357 -1.7798069 0
4.6591029 -9.9041958 -1.6643548 0
4.5488648 -9.6727171 -1.6596701 0
3.4561801 -9.3489084 -1.8459151 0
3.4262724 -9.0694447 -1.7176489 0
2.4001739 -8.4911518 -1.8425572 0
0.88809109 -7.6282225 -1.8783381 0
0.65959311 -7.44172 -1.8939766 0
0.3414681 -6.8573589 -1.6438363 0
0.019206285 -6.7951689 -1.6597594 0
-2.670326 -5.2405958 -1.726909 0
-2.7544088 -4.7903109 -1.6993107 0
-9.8119755 -0.53378654 -1.7588845 0
-10.0156 -0.18909955 -1.7310071 0
-10.721518 0.16807723 -1.8976568 0
25.649258 -23.87978 -1.2474409 0
20.698292 -20.397968 -1.3019693 0
20.273151 -20.230055 -1.3955172 0
20.159092 -20.259727 -1.3986038 0
19.430647 -19.94862 -1.2019789 0
19.245455 -19.606207 -1.2598993 0
17.281309 -18.097292 -1.4731194 0
17.045258 -18.137829 -1.4914449 0
15.640469 -17.33437 -1.2864408 0
15.324539 -17.062429 -1.2715293 0
15.012613 -16.815184 -1.2784054 0
14.685209 -16.599297 -1.2772946 0
14.318148 -16.359104 -1.2977856 0
14.05039 -16.092464 -1.290489 0
13.687389 -15.858146 -1.289181 0
13.411665 -15.633607 -1.4241152 0
13.075064 -15.397271 -1.4607673 0
12.779379 -15.113147 -1.4626466 0
12.429552 -14.885076 -1.3468614 0
11.994141 -14.606299 -1.3541108 0
11.686817 -14.561898 -1.3260827 0
11.428534 -14.348909 -1.2767789 0
11.020657 -14.238398 -1.4135826 0
9.9913044 -13.421479 -1.3067198 0
9.7116032 -13.277909 -1.2856218 0
9.3583488 -13.015156 -1.3382348 0
8.9937229 -12.841078 -1.2709732 0
8.7492981 -12.546401 -1.2742548 0
8.2819557 -12.464345 -1.3194814 0
8.1055927 -12.098186 -1.360008 0
7.8794379 -11.864405 -1.3741959 0
7.3249373 -11.754431 -1.3575933 0
7.0388551 -11.46234 -1.3762655 0
6.8082089 -11.226523 -1.4201086 0
6.2099166 -11.039209 -1.5008951 0
6.0201797 -10.89285 -1.492112 0
5.7272234 -10.700841 -1.5004522 0
5.361237 -10.439609 -1.3613106 0
4.9004989 -10.106221 -1.2063091 0
4.6973863 -9.8723707 -1.2712455 0
4.283237 -9.7996111 -1.5241286 0
3.5992732 -9.2128887 -1.4740205 0
3.3447437 -9.0460339 -1.4712058 0
2.8330865 -8.849864 -1.2482561 0
2.8461862 -8.6258993 -1.2432057 0
2.1859701 -8.4401989 -1.4332079 0
2.0194888 -8.1958227 -1.315783 0
1.5944157 -8.0078773 -1.2630146 0
1.3944411 -7.7514591 -1.3267446 0
1.1055105 -7.5716391 -1.261721 0
0.70581222 -7.3325415 -1.2103121 0
0.16758251 -7.0850163 -1.4845139 0
0.056988716 -6.9180813 -1.489118 0
-0.40106702 -6.7202206 -1.32138 0
-0.62635207 -6.3659563 -1.3397844 0
-1.0225534 -6.2649555 -1.3091571 0
-1.308506 -6.0632372 -1.3330507 0
-1.5721383 -5.7307749 -1.2898216 0
-2.0220914 -5.3866701 -1.3061825 0
-2.2767534 -5.1845694 -1.2940923 0
-2.6020105 -5.0134068 -1.2851136 0
-2.964246 -4.8515644 -1.2886109 0
-3.3514938 -4.6684437 -1.2851331 0
-3.6954908 -4.4917927 -1.2795961 0
-4.0462608 -4.2990723 -1.2894763 0
-4.3783135 -4.0733328 -1.2557168 0
-4.6760097 -3.7883897 -1.2465791 0
-4.9800692 -3.5094206 -1.2818743 0
-5.2428498 -3.2506931 -1.3138738 0
-5.4040351 -3.0490425 -1.3831691 0
-5.9806142 -2.8625946 -1.364271 0
-6.7739568 -2.518496 -1.3710768 0
-6.9554501 -2.1582391 -1.3620605 0
-7.2551522 -2.0277116 -1.2833073 0
-8.5686226 -1.3826795 -1.3067763 0
-8.5753288 -1.1940348 -1.2956064 0
-8.9710751 -0.91566825 -1.3673302 0
-9.7811909 -0.46029735 -1.3823482 0
-9.9308319 -0.21283174 -1.2689178 0
-10.139904 0.024326086 -1.3260008 0
-10.682142 0.18565869 -1.3779386 0
-11.467733 0.62582421 -1.4001838 0
-11.498941 0.82298541 -1.2428507 0
-12.21648 1.3586838 -1.2682705 0
-14.03978 2.3581359 -1.2328507 0
-16.040379 3.5892212 -1.2286695 0
29.610886 -26.598688 -0.8860715 0
24.023846 -22.702299 -0.94246948 0
23.732342 -22.648897 -0.92835772 0
23.268583 -22.28443 -0.9725889 0
22.967999 -22.09938 -0.97090739 0
22.676945 -21.894751 -0.96740764 0
22.392689 -21.685247 -0.96358037 0
22.143789 -21.498343 -0.96026796 0
21.634706 -20.942072 -0.93916541 0
21.394196 -20.886459 -0.94818962 0
21.032602 -20.741331 -0.95677722 0
20.657669 -20.644262 -0.97106415 0
20.412395 -20.583689 -0.98097473 0
19.729162 -19.80549 -1.0528412 0
19.371277 -19.573809 -0.96372885 0
18.998478 -19.486813 -0.99517947 0
18.646896 -19.356592 -1.0068594 0
18.353176 -19.036564 -0.98878926 0
17.98451 -18.850481 -1.0005952 0
17.717306 -18.559305 -1.0195545 0
17.345158 -18.2757 -1.0072923 0
17.089621 -18.077847 -0.99795687 0
16.328577 -17.49744 -1.02292 0
16.013149 -17.415106 -0.96240735 0
15.723358 -17.166248 -1.0615203 0
15.371025 -16.970217 -0.93903828 0
15.01988 -16.778917 -0.87127936 0
14.745754 -16.542568 -0.86638427 0
14.357853 -16.322289 -0.8975783 0
14.106031 -16.067402 -0.96219945 0
13.688412 -15.859191 -0.82133633 0
13.29648 -15.718291 -0.96210963 0
13.022066 -15.443578 -1.0821965 0
12.701614 -15.278875 -1.1342601 0
12.382618 -15.040385 -1.1469781 0
12.204889 -14.767879 -1.124368 0
11.545559 -14.594531 -1.0098557 0
11.326574 -14.468143 -0.99469084 0
10.997965 -14.314834 -1.0168164 0
10.585526 -14.063946 -1.1684937 0
10.355343 -13.804322 -1.06671 0
9.9974289 -13.367148 -0.91728395 0
9.7755699 -13.242348 -0.90812391 0
9.2936993 -13.134625 -1.0813717 0
9.0382824 -12.809747 -0.98298293 0
8.7336502 -12.545107 -0.98449886 0
8.4199867 -12.303725 -1.0260475 0
8.0983391 -12.112704 -1.0369884 0
7.6918206 -11.943656 -0.90886652 0
7.3993373 -11.618894 -0.92752236 0
7.0282273 -11.522471 -0.86682284 0
6.6350117 -11.451072 -0.82442755 0
5.7581143 -10.902328 -1.165889 0
5.6446395 -10.654967 -1.177773 0
5.2987981 -10.39877 -1.154189 0
5.024982 -10.264728 -1.0996823 0
3.0476887 -8.7444382 -1.0081369 0
2.6498141 -8.6867437 -1.0173433 0
2.3165081 -8.3475533 -1.0551357 0
2.0409522 -8.1964331 -1.012519 0
1.5945544 -7.970377 -1.1001824 0
1.3894708 -7.7222452 -1.0820055 0
1.1174219 -7.6083784 -1.0356611 0
0.73563337 -7.1314077 -1.1385484 0
0.24533248 -7.0496054 -1.1316552 0
0.054197788 -6.8368759 -1.1643916 0
-0.18737245 -6.6095438 -1.1926659 0
-1.0275464 -5.9406471 -1.1830285 0
-1.216373 -5.8187428 -1.1784132 0
-1.5847213 -5.6359196 -1.1771246 0
-1.9364699 -5.4276409 -1.1273032 0
-2.2566824 -5.1630402 -1.1483331 0
-2.5609548 -4.9647646 -1.1685057 0
-2.9639137 -4.6909895 -1.1705689 0
-3.1987967 -4.5855246 -1.1618183 0
-11.953304 1.0634825 -1.16169 0
-12.369932 1.4215558 -0.98850489 0
-12.497589 1.4927571 -1.0103128 0
-13.714336 2.2147748 -1.1802661 0
-13.791378 2.4602702 -1.1790652 0
-16.063669 3.6893871 -1.1492234 0
30.785177 -27.262255 -0.70872033 0
29.37738 -26.224154 -0.6060136 0
29.02961 -26.206244 -0.59500879 0
28.47687 -25.929468 -0.56049377 0
27.191898 -24.694895 -0.52333921 0
26.670128 -24.382055 -0.50831509 0
26.370035 -24.436426 -0.52177107 0
26.007072 -24.294998 -0.51963145 0
24.370548 -22.835043 -0.77292967 0
23.627087 -22.350809 -0.43096569 0
23.458485 -22.187098 -0.43650827 0
23.067623 -21.987646 -0.47572798 0
22.650162 -21.87369 -0.50606513 0
22.346022 -21.786779 -0.47403747 0
22.084986 -21.519375 -0.41687343 0
21.329073 -20.95286 -0.42500603 0
21.067606 -20.694601 -0.63105857 0
20.691078 -20.500868 -0.58015239 0
20.363255 -20.421127 -0.57496738 0
20.056452 -20.159769 -0.58231276 0
19.678606 -19.651903 -0.49396563 0
19.445013 -19.600439 -0.48888311 0
18.98283 -19.398392 -0.7720471 0
18.796051 -19.316393 -0.76088476 0
18.361885 -18.954445 -0.58760321 0
18.059557 -18.70606 -0.58842802 0
17.756056 -18.4622 -0.54931498 0
17.344181 -18.33976 -0.54906297 0
16.942009 -18.234167 -0.56694865 0
16.663071 -17.962944 -0.50559098 0
16.354321 -17.707178 -0.55810487 0
16.01103 -17.505539 -0.52474016 0
15.693035 -17.463655 -0.54900277 0
15.019501 -16.764881 -0.57214183 0
14.903019 -16.539463 -0.56652468 0
14.269112 -16.419996 -0.48506367 0
14.025675 -16.152384 -0.53528047 0
13.694328 -15.71182 -0.74960417 0
13.414145 -15.6661 -0.77744085 0
13.086847 -15.359327 -0.56967449 0
12.587019 -15.191409 -0.63327068 0
12.29406 -15.103912 -0.6413824 0
12.082153 -14.771024 -0.61745828 0
11.503325 -14.604892 -0.61136413 0
11.418322 -14.360641 -0.58023578 0
10.92864 -14.082054 -0.6060344 0
10.729433 -13.960137 -0.6697976 0
10.280563 -13.6765 -0.71155107 0
10.017759 -13.414004 -0.71083814 0
9.8128204 -13.336855 -0.74256539 0
7.2747655 -11.655231 -0.78640622 0
7.0813804 -11.566616 -0.77684617 0
5.5533624 -10.5568 -0.73164529 0
5.3605676 -10.496808 -0.72550279 0
-1.1859062 -6.1684399 -0.55847228 0
-1.1411289 -6.0381756 -0.55608815 0
36.465691 -31.005899 -0.16247973 0
28.682442 -26.029177 -0.20042604 0
27.85463 -25.459726 -0.3853288 0
21.356274 -21.006695 -0.32031628 0
21.02615 -20.814409 -0.32472429 0
20.515358 -20.59491 -0.29537705 0
20.481188 -20.507494 -0.28244933 0
20.030184 -20.113626 -0.24931507 0
19.676136 -20.046667 -0.33314651 0
18.658314 -19.272156 -0.3263588 0
18.384899 -19.216541 -0.34354725 0
32.313255 -28.136316 0.023350302 0
32.026062 -28.120693 0.019044954 0
31.731556 -28.07851 0.01587802 0
20.260677 -20.185646 0.088229895 0
20.044092 -20.099802 0.094025627 0
18.840574 -19.545782 0.12601034 0
17.94179 -18.874365 0.39175862 0
-3.3909321 -4.594552 0.018042417 0
19.150021 -19.379923 0.44034287 0
1.9745383 -7.9028263 -2.8883226 0
2.0096061 -7.6544743 -2.8709543 0
4.1455369 -9.1472054 -2.5066929 0
3.9773269 -9.0247307 -2.5872152 0
3.4945776 -8.6931438 -2.5931387 0
3.4858394 -8.4691 -2.5828726 0
-2.2003646 -5.1106443 -2.4059064 0
28.837957 -25.408247 -2.1562479 0
28.724821 -25.397089 -2.1476994 0
23.72611 -22.269314 -2.0049038 0
10.106817 -13.163156 -2.0183899 0
9.9833202 -12.837659 -2.0060003 0
9.6822472 -12.562085 -2.020334 0
9.3688927 -12.38662 -2.0451939 0
8.9426155 -12.331881 -2.094496 0
8.6828728 -12.117198 -2.2150931 0
7.5476527 -11.488811 -2.2159059 0
5.5098958 -9.8286238 -2.3028986 0
5.4015846 -9.7663574 -2.3000791 0
-0.78444242 -5.7913446 -2.1105881 0
-0.85729277 -5.6117172 -2.1142697 0
-4.2962999 -3.6632285 -2.3144674 0
-4.5050654 -3.530844 -2.3195627 0
-4.6879191 -3.359154 -2.3196139 0
23.801758 -22.105145 -1.9796612 0
23.692871 -22.072395 -1.8918608 0
22.445541 -21.331833 -1.8516303 0
19.095631 -19.070293 -1.9787662 0
18.873987 -18.897547 -1.6632921 0
18.523651 -18.82362 -1.9054615 0
17.784611 -18.386904 -1.9742175 0
17.144106 -17.665319 -1.9291536 0
16.883327 -17.60397 -1.9400812 0
16.490692 -17.513262 -1.9574085 0
16.219391 -17.323925 -1.9547656 0
11.487526 -14.117092 -1.602514 0
10.233549 -13.19679 -1.6325921 0
10.116058 -12.872007 -1.6335015 0
9.0749969 -12.496022 -1.7472427 0
8.182869 -11.678761 -1.6972756 0
7.9512019 -11.763512 -1.6074851 0
7.2112565 -11.134572 -1.6975445 0
4.850141 -9.761404 -1.6315213 0
4.5685315 -9.4288263 -1.667412 0
3.5011458 -8.6998587 -1.7677417 0
3.3222411 -8.7032108 -1.6217141 0
2.8998649 -8.1301861 -1.6936133 0
2.5687454 -8.072423 -1.7525158 0
2.3578939 -7.7676983 -1.7259625 0
1.9496233 -7.4388285 -1.8836595 0
1.1918056 -7.2085047 -1.9278684 0
0.29787874 -6.779295 -1.6401544 0
-2.8357913 -4.5273705 -1.6859393 0
-3.0433059 -4.2385211 -1.6807774 0
-10.138248 0.16177082 -1.7529579 0
32.246201 -27.695263 -1.4238194 0
31.000404 -26.948174 -1.3743901 0
25.740126 -23.534534 -1.2106779 0
20.828985 -20.325121 -1.3328834 0
20.481359 -20.114258 -1.3786293 0
19.376949 -19.305609 -1.2031236 0
18.207159 -18.256128 -1.4881948 0
18.049389 -18.249849 -1.4890491 0
17.542332 -18.009085 -1.4449092 0
17.187914 -17.810617 -1.3233346 0
17.048552 -17.547182 -1.201239 0
15.681217 -16.919235 -1.216198 0
15.294359 -16.268614 -1.4904587 0
15.137106 -16.225498 -1.4956726 0
13.838636 -15.745791 -1.357268 0
13.547527 -15.499059 -1.2145308 0
12.778584 -15.044754 -1.3898869 0
12.503395 -14.800276 -1.5099577 0
12.206347 -14.565182 -1.4678921 0
11.789753 -14.37735 -1.5777851 0
11.498455 -14.089101 -1.4477588 0
11.245255 -13.844355 -1.2369123 0
10.948753 -13.551826 -1.2482514 0
10.530046 -13.423301 -1.3043895 0
10.203186 -13.307563 -1.3482136 0
9.8903961 -12.835151 -1.3906777 0
9.547533 -12.626159 -1.3300627 0
9.2740154 -12.44104 -1.2735441 0
8.9746265 -12.223486 -1.2784189 0
8.5350304 -12.108547 -1.3629407 0
7.7424693 -11.661128 -1.3736238 0
7.5249224 -11.411671 -1.3493218 0
7.1861315 -11.231116 -1.3460543 0
6.9557223 -10.941675 -1.3777192 0
6.6356359 -10.574697 -1.3684567 0
6.2162051 -10.389544 -1.5516249 0
5.8807335 -10.291505 -1.4906068 0
5.6211982 -10.022036 -1.4638456 0
5.1922708 -9.9162703 -1.2261299 0
4.9294567 -9.5204382 -1.2558004 0
4.564642 -9.4424152 -1.2452224 0
4.392705 -9.1006556 -1.2658755 0
2.9074147 -8.2346001 -1.2299619 0
2.6093724 -8.0749617 -1.2184577 0
2.1966965 -7.9986305 -1.3372509 0
1.7966809 -7.5316467 -1.2121023 0
1.4682536 -7.4559422 -1.2662019 0
1.1939011 -7.2401581 -1.2752763 0
0.92513084 -7.0011768 -1.2863482 0
0.64081287 -6.9328432 -1.2277162 0
0.23360157 -6.5521994 -1.4493873 0
-0.12475061 -6.2039051 -1.2526712 0
-0.43422341 -6.1575127 -1.3372205 0
-0.72591782 -5.7209578 -1.3160877 0
-1.0629157 -5.5806589 -1.3069789 0
-1.444827 -5.3706064 -1.280213 0
-1.791106 -5.2801666 -1.2784003 0
-2.1053998 -5.1258144 -1.2673731 0
-2.3818374 -4.6867409 -1.3320115 0
-2.761579 -4.5463114 -1.3478584 0
-3.0760334 -4.2713528 -1.3453242 0
-3.4473186 -4.1091843 -1.3607429 0
-3.7853 -3.8812025 -1.355675 0
-4.0647259 -3.618952 -1.3674114 0
-4.3524656 -3.3475411 -1.368134 0
-4.8620162 -3.2815511 -1.2753552 0
-5.1559954 -3.0773861 -1.2160339 0
-5.4074388 -2.7805433 -1.2575628 0
-5.7368293 -2.4742985 -1.3036714 0
-5.9473286 -2.2858386 -1.3226351 0
-7.1577878 -1.7000265 -1.3502686 0
-7.3198438 -1.3367202 -1.3446592 0
-8.3862133 -0.90799284 -1.2374897 0
-9.0015717 -0.6238246 -1.3543559 0
-9.0862122 -0.35455489 -1.3526018 0
-9.6009464 -0.051476717 -1.4377476 0
-9.8081837 0.12350464 -1.3159823 0
-10.090797 0.32709789 -1.2718982 0
-10.485085 0.50324488 -1.2928033 0
-10.768257 0.76127076 -1.2301145 0
-11.450161 1.2075572 -1.4347422 0
25.787392 -23.335184 -1.1894612 0
24.52947 -22.490862 -0.92008716 0
24.255247 -22.485126 -0.91701603 0
23.325916 -21.681843 -0.93092716 0
23.137077 -21.488333 -0.92247313 0
22.663488 -21.211123 -0.92056656 0
22.241358 -21.023956 -0.93958706 0
21.948509 -20.865572 -0.95236659 0
21.612711 -20.62125 -0.98022425 0
21.238667 -20.439463 -0.98050505 0
20.94532 -20.214668 -0.98427737 0
20.61002 -19.929382 -0.95092964 0
20.220985 -19.817602 -0.968319 0
19.833469 -19.674652 -1.0123025 0
19.502132 -19.395805 -1.0510026 0
19.362577 -19.151711 -1.1286124 0
18.777634 -18.943253 -0.95006239 0
18.512829 -18.767488 -0.95343739 0
18.201143 -18.437645 -1.0130881 0
17.923601 -18.177393 -0.98602962 0
17.614838 -18.037836 -0.97655666 0
17.266537 -17.77 -0.95939827 0
16.922771 -17.526005 -0.99674314 0
16.614868 -17.315422 -0.95711327 0
16.185896 -17.194143 -1.0104712 0
15.928217 -16.809744 -1.0529591 0
15.599463 -16.659752 -1.0380325 0
15.297489 -16.422497 -1.0152094 0
14.896105 -16.291096 -0.95267516 0
14.540545 -16.134998 -1.0123162 0
14.129089 -15.804473 -0.99299282 0
13.90169 -15.516782 -0.95205879 0
13.614143 -15.368715 -1.0150727 0
13.217052 -15.109309 -1.1292511 0
12.920473 -14.919406 -1.0204363 0
12.611244 -14.693673 -1.0456226 0
12.287771 -14.493536 -1.1182332 0
9.803215 -12.971942 -0.82798624 0
9.5893726 -12.711991 -0.84624439 0
9.2617073 -12.40641 -0.94589531 0
8.9063683 -12.234295 -0.84355485 0
8.480732 -12.095383 -1.0238945 0
8.184824 -11.874805 -0.98845553 0
7.9274249 -11.616648 -1.0005459 0
7.4978127 -11.456082 -0.96048677 0
7.2419019 -11.178338 -0.96995479 0
7.0209727 -10.878652 -1.0898073 0
6.5611501 -10.600477 -0.95786911 0
6.2698579 -10.438572 -1.010705 0
5.943871 -10.26636 -1.1384917 0
5.5207186 -10.000549 -1.0732278 0
5.4101448 -9.8450708 -0.93093789 0
4.8703389 -9.6148491 -1.1626451 0
4.5970721 -9.272439 -1.1176441 0
4.2940264 -9.1046638 -1.1290722 0
3.9755063 -8.8356409 -1.1126291 0
3.6025376 -8.737462 -1.0392388 0
3.2286184 -8.4714909 -0.97996885 0
2.8759241 -8.2760468 -0.95744342 0
2.521966 -8.1043081 -1.0293833 0
2.306062 -7.8978195 -1.0449419 0
1.8271773 -7.4619751 -1.07748 0
1.58147 -7.441226 -1.0091975 0
1.1691616 -7.1714544 -1.1146821 0
0.95852733 -6.9943361 -1.0847847 0
0.54392886 -6.7452917 -1.1175356 0
0.23733163 -6.5718966 -1.1745409 0
-0.13826895 -6.2092886 -1.1672661 0
-0.46311593 -6.0780773 -1.1413232 0
-0.82032776 -5.9365759 -1.1395235 0
-1.136309 -5.6520786 -1.1159536 0
-1.4425359 -5.4578819 -1.1101931 0
-1.7943882 -5.2315245 -1.1005883 0
-2.1097894 -5.0450926 -1.0953798 0
-2.5124702 -4.865531 -1.1291895 0
-2.8341453 -4.6701536 -1.1407914 0
-3.1975625 -4.4471755 -1.1549312 0
-3.5056386 -4.2109923 -1.155539 0
-3.7861948 -3.912071 -1.1539017 0
-4.0728283 -3.6192739 -1.156289 0
-4.3435125 -3.3861039 -1.1364251 0
-5.0900564 -2.8509743 -1.1975518 0
-5.5390639 -2.6820905 -1.1946857 0
-5.6554837 -2.4604964 -1.1817604 0
-8.2335949 -0.72327852 -1.195926 0
-11.361193 1.1968102 -1.1850802 0
-11.951048 1.4110978 -1.1548126 0
-11.960268 1.6638484 -1.151983 0
-12.442759 1.728575 -0.97708309 0
30.193977 -26.16593 -0.6262036 0
29.894564 -26.231358 -0.62160897 0
29.231268 -25.662514 -0.46806189 0
27.381163 -24.607697 -0.51071233 0
27.22921 -24.642475 -0.5175947 0
26.849037 -24.329332 -0.49862936 0
25.289471 -22.932489 -0.78163719 0
24.519283 -22.572847 -0.75936097 0
24.354164 -22.377785 -0.78778398 0
23.907154 -22.17428 -0.43546459 0
23.501715 -22.093739 -0.45247135 0
23.23414 -21.757645 -0.46838358 0
22.938267 -21.720688 -0.54833794 0
21.536633 -20.811975 -0.40065154 0
21.238466 -20.415171 -0.53705698 0
20.86772 -20.259047 -0.60935783 0
20.626308 -19.892254 -0.6134311 0
20.334461 -19.842505 -0.57140875 0
19.830057 -19.534643 -0.53230482 0
19.629698 -19.358425 -0.58134973 0
19.257393 -19.081167 -0.6455074 0
18.89044 -18.867571 -0.59145451 0
18.641874 -18.796982 -0.50802803 0
18.21624 -18.531549 -0.59485453 0
17.957224 -18.208517 -0.56759524 0
17.64415 -18.054476 -0.62806213 0
17.211128 -17.90349 -0.54079813 0
16.928665 -17.446768 -0.58380443 0
16.700293 -17.307035 -0.51960641 0
16.172611 -17.150316 -0.56885862 0
16.071072 -16.851231 -0.5405975 0
15.44651 -16.716595 -0.50426537 0
15.179462 -16.530588 -0.59227204 0
14.853851 -16.219311 -0.58167428 0
14.54454 -16.08539 -0.72361624 0
14.210295 -15.87256 -0.74294472 0
13.954824 -15.642877 -0.76116675 0
13.538277 -15.385014 -0.64508045 0
13.265318 -15.112191 -0.67211449 0
12.87962 -14.880278 -0.55460656 0
12.813505 -14.640543 -0.54545611 0
12.215202 -14.421156 -0.7091276 0
11.907951 -14.270946 -0.6082195 0
11.658087 -13.989251 -0.57984746 0
11.263641 -13.7814 -0.57642418 0
10.887463 -13.563256 -0.58345795 0
10.642885 -13.353262 -0.6454888 0
10.273932 -13.14354 -0.70886409 0
9.9277191 -12.8546 -0.71570116 0
9.5950813 -12.691008 -0.7544179 0
9.2993755 -12.434376 -0.74195474 0
8.9613247 -12.308345 -0.77594203 0
8.4743519 -11.988674 -0.57109725 0
8.2185421 -11.750142 -0.59800696 0
8.1537685 -11.565061 -0.73534685 0
6.9879923 -11.194427 -0.77082103 0
7.0098319 -11.085187 -0.76150709 0
28.932924 -25.347397 -0.16647172 0
23.99369 -22.103395 -0.3926155 0
23.189812 -21.707298 -0.39297125 0
23.028978 -21.459881 -0.37849334 0
21.860985 -20.82374 -0.30036083 0
21.644554 -20.754477 -0.3112801 0
20.622107 -19.846134 -0.19750153 0
20.334383 -19.771875 -0.18956032 0
18.556902 -18.53208 -0.33079815 0
18.319044 -18.486839 -0.32884759 0
17.286037 -17.724548 -0.35651618 0
6.4232945 -10.443533 -0.19360392 0
19.886885 -19.438469 0.15051152 0
-3.137104 -4.3034801 0.026932988 0
-12.663445 1.7875338 0.21718757 0
-12.683533 2.0552056 0.20647547 0
25.523247 -23.346205 0.79993165 0
19.996189 -19.568283 0.44631517 0
19.343351 -19.410999 0.44213369 0
19.310425 -19.372025 0.44351625 0
25.662367 -23.185043 0.80414909 0
2.0217271 -7.2746592 -2.8510509 0
2.0421624 -7.0322189 -2.8367267 0
-5.4625144 -2.2677588 -2.865391 0
4.1248822 -8.6822853 -2.4461036 0
3.4948008 -8.2801037 -2.5720947 0
29.065699 -25.140057 -2.1352227 0
28.313873 -24.843763 -2.0067725 0
8.7152863 -11.705264 -2.1776266 0
8.5112 -11.441358 -2.1837032 0
8.2061939 -11.205129 -2.2060537 0
7.7815185 -11.124248 -2.2057848 0
7.6242051 -10.786383 -2.1478703 0
5.7134266 -9.8137236 -2.2916613 0
5.318439 -9.6050959 -2.2835886 0
-0.8192327 -5.3522587 -2.1036141 0
-1.5401924 -4.7853861 -2.0130184 0
-1.664551 -4.5845523 -2.0189672 0
-2.590483 -4.0748549 -2.101491 0
-2.6744692 -3.8984911 -2.1046181 0
28.422649 -24.649136 -1.988431 0
23.847855 -21.642736 -1.8534732 0
19.640518 -18.738283 -1.6023862 0
19.135708 -18.785856 -1.607185 0
10.068213 -12.588573 -1.6271008 0
10.030727 -12.33392 -1.6209483 0
8.2776661 -11.609446 -1.6876031 0
7.4003148 -11.00901 -1.7142146 0
3.5269232 -8.2560511 -1.8105088 0
2.7386599 -7.8417969 -1.7949877 0
2.32412 -7.4749546 -1.7279892 0
2.0667176 -7.261797 -1.8404816 0
2.0176656 -7.0799227 -1.8725184 0
-3.1267502 -3.6692734 -1.6458336 0
32.583988 -27.517778 -1.4047596 0
20.445459 -19.198284 -1.2262629 0
19.071526 -18.742369 -1.5968502 0
18.432684 -18.219851 -1.4776357 0
18.167353 -17.839163 -1.2946512 0
17.595812 -17.650127 -1.2090772 0
17.473427 -17.614521 -1.203715 0
16.456663 -16.675001 -1.5012938 0
16.256954 -16.688086 -1.5178775 0
15.852716 -16.163908 -1.4116007 0
15.476114 -16.155382 -1.4436449 0
15.045321 -15.992267 -1.4463927 0
14.938879 -15.609827 -1.36201 0
14.425901 -15.52916 -1.4066668 0
14.114944 -15.270909 -1.3874446 0
13.927723 -14.973205 -1.3449376 0
11.424128 -13.548133 -1.5766797 0
11.147541 -13.151416 -1.5671886 0
10.807076 -12.852816 -1.3687778 0
10.44767 -12.835496 -1.3933098 0
10.041073 -12.735343 -1.4151438 0
9.7672062 -12.192574 -1.306962 0
9.5726376 -12.14226 -1.3476349 0
8.7935276 -11.683302 -1.549374 0
7.6551166 -11.113227 -1.3398228 0
7.439322 -10.845773 -1.3454812 0
7.1509299 -10.621307 -1.3892715 0
6.706872 -10.407539 -1.3045667 0
6.4665465 -10.1747 -1.3242122 0
6.1247306 -10.033578 -1.4267625 0
5.6990113 -9.8149385 -1.4706938 0
5.4488406 -9.4779835 -1.4501778 0
4.7527366 -9.1131096 -1.2761273 0
4.4414873 -8.849061 -1.2867595 0
4.1951861 -8.5804024 -1.2909313 0
3.8756065 -8.2507067 -1.3298856 0
3.2784615 -8.1759195 -1.2187546 0
3.0373821 -8.0734768 -1.2222306 0
2.9211416 -7.7393866 -1.2229246 0
1.7943029 -7.034915 -1.2174026 0
1.5326924 -6.9223614 -1.2453123 0
1.0694363 -6.6282749 -1.3113034 0
0.79875827 -6.2257977 -1.36494 0
0.30398965 -6.1606159 -1.5176067 0
0.16659331 -5.9638672 -1.3105336 0
-0.21051598 -5.7767973 -1.2940962 0
-0.52716756 -5.5109062 -1.313412 0
-0.86306572 -5.2897959 -1.249702 0
-1.197793 -5.1610537 -1.2852973 0
-1.57669 -4.8638973 -1.2932358 0
-1.8886807 -4.6635685 -1.2769983 0
-2.217639 -4.4320025 -1.2720456 0
-2.5783498 -4.1853819 -1.2577077 0
-2.9093173 -4.03125 -1.2595049 0
-3.2295895 -3.8027549 -1.2725747 0
-3.5494304 -3.5265236 -1.2672482 0
-3.8255579 -3.2565029 -1.2623742 0
-4.1168838 -3.0258636 -1.2799845 0
-4.6340079 -2.9977257 -1.3621585 0
-4.9054589 -2.71592 -1.3630192 0
-5.1883597 -2.4210634 -1.3423194 0
-5.3610506 -2.1382792 -1.3581096 0
-6.0078864 -2.0499949 -1.3182453 0
-6.1892977 -1.7195675 -1.2872761 0
-6.4018435 -1.4710157 -1.2606146 0
-6.8407478 -1.2254839 -1.2120731 0
-7.4026246 -1.1391871 -1.3420064 0
-7.5394988 -0.87558222 -1.3450965 0
-7.7066579 -0.5771234 -1.4461584 0
-9.1103096 -0.065690517 -1.3409733 0
-9.1813965 0.18256402 -1.3402075 0
-9.7627106 0.38059568 -1.3764201 0
-9.8733883 0.6698463 -1.2870589 0
-10.056389 0.92551398 -1.2116747 0
-10.677204 1.1082618 -1.2079037 0
-11.46451 1.5047171 -1.4237232 0
-11.483562 1.7575827 -1.4153475 0
32.885269 -27.452263 -1.1853735 0
28.224161 -24.536861 -1.0734092 0
25.899691 -23.060993 -1.1618617 0
24.74712 -22.212931 -0.90618533 0
24.55547 -22.212034 -0.92999792 0
22.98176 -21.305229 -0.91356742 0
22.718639 -20.820498 -0.92946112 0
22.451691 -20.912346 -0.95759028 0
21.742229 -20.313862 -0.88886327 0
21.423935 -20.213758 -0.89731216 0
21.066408 -19.906794 -1.1188117 0
20.467934 -19.257664 -1.167035 0
18.736675 -18.132509 -1.0423601 0
18.482954 -18.135029 -0.99977654 0
18.173887 -18.120852 -0.90029132 0
17.724518 -17.555868 -0.89152181 0
17.493471 -17.474154 -1.0048481 0
17.096523 -17.223885 -1.0342388 0
16.766861 -17.022879 -1.0973274 0
16.403637 -16.882296 -1.042004 0
16.114973 -16.629421 -1.0245702 0
15.80481 -16.370573 -0.98402399 0
15.414888 -16.168455 -0.95714086 0
15.122055 -15.87607 -0.9757297 0
14.807228 -15.629611 -0.97347057 0
14.491133 -15.454133 -0.97220254 0
14.088612 -15.37281 -0.97620064 0
13.645924 -15.126944 -0.96232897 0
13.347094 -14.910514 -0.99648696 0
13.078085 -14.657104 -0.99898523 0
12.789656 -14.377969 -1.015312 0
12.45046 -14.12385 -1.0405999 0
12.275316 -13.865201 -1.0802176 0
11.869152 -13.561898 -0.91909105 0
11.638767 -13.403423 -0.83502108 0
10.801579 -12.830227 -0.96996915 0
10.555792 -12.733338 -0.99709052 0
9.618103 -12.431724 -0.86288708 0
9.4674606 -12.203391 -0.8704766 0
8.9903374 -11.933514 -0.86284107 0
8.8406906 -11.722157 -0.88334018 0
8.5112267 -11.433125 -0.96519285 0
8.1780128 -11.232187 -1.002625 0
7.9092622 -10.983478 -1.0676064 0
7.5219121 -10.869143 -1.0079385 0
7.0996327 -10.608746 -0.94696397 0
6.8379474 -10.364358 -1.0206569 0
6.4460106 -10.104253 -1.0763048 0
6.1349597 -9.9962378 -1.0808861 0
