# .PCD v0.7 - Point Cloud Data file format
VERSION 0.7
FIELDS x y z intensity
SIZE 4 4 4 4
TYPE F F F F
COUNT 1 1 1 1
WIDTH 1402
HEIGHT 1
VIEWPOINT 0 0 0 1 0 0 0
POINTS 1402
DATA ascii
15.9709 0.74281538 -0.68763 0
16.869867 0.34546316 -0.67649156 0
17.200197 0.36239994 -0.63539046 0
17.505455 0.26820028 -0.59839869 0
-27.630482 15.146876 -0.37369066 0
-27.152088 14.753658 -0.39681274 0
-27.118917 14.82898 -0.39745978 0
-0.67363763 6.2566957 -0.24966687 0
-0.48185626 6.1578994 -0.38710237 0
0.18829224 5.8157892 -0.24631028 0
0.36003146 5.8128228 -0.12652685 0
-26.494881 14.699372 0.27340209 0
-0.86032844 6.4981632 0.026720887 0
-0.61509645 6.2458496 0.054567736 0
0.18370733 6.16119 0.13731667 0
0.36918613 5.7800856 0.094740458 0
7.9863262 2.967042 -2.0765622 0
8.7320566 2.7883425 -2.0127878 0
9.4246368 2.4973435 -2.1986516 0
13.235287 1.1499134 -2.1473467 0
3.3474193 4.4880242 -1.7031333 0
4.5584197 4.2731991 -1.8480624 0
5.2152119 3.8852997 -1.7945102 0
5.5245681 3.7947898 -1.8367808 0
8.3628311 2.850162 -1.8001624 0
8.6248312 2.7415843 -1.7245712 0
9.5643787 2.4552093 -1.7805482 0
9.7794113 2.3544478 -1.7674202 0
11.652855 1.8327233 -1.6345099 0
16.23222 0.11683977 -1.9044733 0
-22.836485 13.128503 -1.2254725 0
-21.497011 12.810821 -1.2285703 0
-21.307327 12.618096 -1.2392411 0
-20.196066 12.267996 -1.2394034 0
-19.773451 12.138205 -1.3443621 0
-16.602638 11.052903 -1.2364241 0
-16.470791 11.008932 -1.2261814 0
-15.619539 10.637065 -1.2418536 0
-14.907106 10.504011 -1.2582859 0
-14.079247 10.102304 -1.2026614 0
-13.652016 10.266627 -1.2039361 0
-13.436917 10.012137 -1.3016133 0
-12.847474 9.9066172 -1.2077991 0
-11.511123 9.3940544 -1.2454664 0
-11.140443 9.2583313 -1.2652142 0
-10.063112 9.097991 -1.2253714 0
-9.8319902 8.8630123 -1.2143273 0
-9.4758844 8.7198744 -1.2304559 0
-9.2309084 8.631341 -1.2287712 0
-8.1987104 8.3787718 -1.2007371 0
-8.0260115 8.2628145 -1.2345283 0
-7.7719588 8.2108717 -1.2112457 0
-6.3959074 7.7009239 -1.2418363 0
-5.2651229 7.3304386 -1.2182264 0
-2.5473242 6.5202236 -1.2025656 0
-2.2086043 6.4157438 -1.2136418 0
-2.1073322 6.1717491 -1.2222744 0
-1.1654183 6.0061994 -1.2156181 0
-0.21885684 5.7987499 -1.2933396 0
-0.19355777 5.6203918 -1.2788842 0
0.3378025 5.4430857 -1.3542496 0
1.227654 5.1565294 -1.4381541 0
1.5647134 5.213954 -1.5224191 0
1.7499388 5.0116625 -1.5041258 0
2.4357326 4.9669151 -1.2067065 0
4.8767095 3.9893255 -1.2515378 0
7.0136538 3.1125107 -1.2031087 0
8.4437399 2.8328886 -1.2544293 0
8.7308521 2.7025495 -1.2431364 0
9.1418333 2.5818968 -1.2172546 0
9.4660969 2.4444623 -1.395226 0
9.846137 2.3178387 -1.2705417 0
10.194972 2.2214808 -1.3392442 0
10.701294 2.0053515 -1.2892118 0
11.023118 1.9904307 -1.2838033 0
11.374759 1.8556744 -1.3888608 0
11.860784 1.6752094 -1.2384353 0
12.097121 1.6239082 -1.2953122 0
12.349648 1.5706104 -1.4321113 0
-26.412653 14.288714 -1.0178208 0
-25.312983 14.030629 -1.0939044 0
-25.169041 13.88614 -0.97235507 0
-24.278164 13.57681 -0.9373132 0
-23.541985 13.43666 -0.87446028 0
-23.321846 13.191175 -0.92565775 0
-22.477295 12.998356 -1.0035236 0
-21.937683 12.766456 -0.97809994 0
-21.717215 12.730296 -0.96070915 0
-21.417992 12.749646 -0.93852437 0
-20.099758 12.196778 -1.1665767 0
-19.29051 11.930034 -1.1385674 0
-18.953373 11.850966 -1.0136127 0
-18.30673 11.603766 -1.1028887 0
-18.034935 11.547055 -1.0356953 0
-17.054367 11.079518 -0.9970327 0
-16.795063 11.155803 -1.0885464 0
-16.150637 10.898982 -1.0325398 0
-15.591131 10.707059 -0.99709427 0
-15.368526 10.784902 -1.0517246 0
-14.782166 10.452184 -1.007898 0
-14.457969 10.314748 -1.0472516 0
-14.139827 10.275817 -1.0913314 0
-13.674331 10.088351 -1.067266 0
-13.28247 10.011467 -1.1081486 0
-12.931069 9.8090096 -1.1636641 0
-12.675601 9.7670536 -1.0921673 0
-12.123752 9.561717 -1.1050626 0
-11.831121 9.4966383 -1.025534 0
-11.484755 9.3783722 -1.1120167 0
-11.005636 9.2016439 -1.0467759 0
-10.663245 9.1241674 -0.98141462 0
-10.281629 8.9703579 -0.96909946 0
-9.916461 8.8363504 -0.99293756 0
-9.5684538 8.7607508 -0.97657692 0
-9.2278004 8.605648 -1.0230807 0
-8.7310352 8.5119019 -0.9516744 0
-8.4132261 8.3427067 -1.1625992 0
-7.9612594 8.190279 -1.1978577 0
-7.6649213 8.07374 -1.1815233 0
-7.3364677 8.018219 -1.0328939 0
-6.8731718 7.9147091 -0.84690309 0
-6.4889164 7.7606196 -0.96907431 0
-6.16675 7.7193737 -0.96244156 0
-5.8052688 7.4680099 -0.99392545 0
-5.3072705 7.4648395 -1.0343882 0
-5.0053787 7.3107042 -1.0616332 0
-4.5729012 7.1072979 -1.0432155 0
-4.2203417 7.0724611 -1.0160351 0
-3.8227367 6.9260998 -1.0201153 0
-3.4300129 6.8252068 -1.0334252 0
-3.04145 6.6702361 -1.0299691 0
-2.661932 6.5212317 -1.0955318 0
-2.3258705 6.3680382 -1.0596222 0
-1.9209827 6.2516804 -1.1409198 0
-1.5606306 6.1159887 -1.0670739 0
-1.1810006 5.9359288 -1.0521462 0
-0.84496093 5.896028 -1.0747087 0
-0.48409584 5.7094831 -1.0651968 0
-0.07403937 5.5936756 -1.0452967 0
0.40203235 5.4890122 -1.0089082 0
0.71440792 5.3268123 -0.98768669 0
1.1811253 5.2065344 -1.0695359 0
1.4114728 5.0883665 -1.1027784 0
1.9506516 4.9477372 -0.97812885 0
2.3724933 4.7930727 -1.0600024 0
2.718188 4.6617317 -1.1468498 0
2.9340262 4.5751953 -0.9400081 0
3.2508414 4.5118818 -0.86098957 0
3.7849345 4.3394799 -0.86183625 0
4.5182605 4.1248879 -0.82141972 0
6.9782634 3.3796353 -1.1908158 0
6.9706759 3.2092662 -1.1946304 0
9.2249136 2.4992104 -1.1526235 0
9.3338919 2.6815233 -1.160838 0
9.9227085 2.2608204 -1.0694329 0
10.074672 2.4239073 -1.0801889 0
12.909067 1.2944347 -1.1728979 0
13.296853 1.325251 -1.1480764 0
13.549273 1.1012129 -1.1469811 0
14.466381 0.83219707 -1.1252025 0
15.220281 0.55524671 -0.9457624 0
15.439159 0.47928655 -1.0715947 0
15.711318 0.36649549 -1.1516117 0
16.666739 0.11971605 -1.0354409 0
17.912455 -0.28425801 -1.1187952 0
-28.978333 15.131568 -0.41626701 0
-28.231815 14.875127 -0.48485586 0
-27.401312 14.720702 -0.46328029 0
-26.656443 14.358895 -0.65240711 0
-25.736229 14.071859 -0.53780627 0
-25.638727 14.068765 -0.53402811 0
-25.174707 13.73245 -0.73907602 0
-23.663277 13.331184 -0.79844475 0
-14.852771 10.474801 -0.68530738 0
-13.981281 10.193822 -0.79112476 0
-13.688692 10.101315 -0.74992502 0
-13.335652 10.026673 -0.69790179 0
-12.856153 9.8441019 -0.7305758 0
-12.631813 9.7294168 -0.71340054 0
-11.700486 9.4477777 -0.78955227 0
-11.451486 9.3569794 -0.76637858 0
-10.864216 9.3259115 -0.71426827 0
-10.680909 9.0844851 -0.71238166 0
-10.526345 8.8778658 -0.71286458 0
-9.7217493 8.9427261 -0.77219337 0
-9.5400553 8.7487888 -0.75819814 0
-9.3487196 8.4869957 -0.7763235 0
-8.707736 8.385622 -0.76687062 0
-8.5723362 8.2221193 -0.77548599 0
-2.5739434 6.4403496 -0.6981076 0
-2.3204823 6.3468175 -0.70177758 0
-1.9642028 6.3754978 -0.73421413 0
-1.4545698 5.8885102 -0.76012868 0
-1.20876 6.0173125 -0.77474988 0
-0.89592707 6.0551457 -0.60281408 0
0.084505886 5.6030993 -0.5286094 0
0.3568401 5.3879075 -0.60287505 0
0.53149056 5.3532958 -0.58569813 0
1.1197875 5.0420356 -0.79474717 0
1.3956143 5.1214223 -0.49943146 0
1.7981755 4.8982978 -0.50997436 0
2.3100419 4.8036542 -0.48762533 0
2.6734629 4.6523333 -0.60577404 0
2.9040246 4.6285033 -0.51031107 0
3.5410857 4.506011 -0.69928807 0
3.6478279 4.382051 -0.5150789 0
4.5464787 4.1024823 -0.48507315 0
6.0109577 3.4640923 -0.59942955 0
13.614513 0.95989501 -0.62669748 0
15.593974 0.47151554 -0.67214 0
15.860342 0.30522716 -0.70323783 0
16.406351 0.047869563 -0.65574187 0
16.618118 0.1998924 -0.66488355 0
17.08622 0.028503299 -0.59025353 0
17.285532 -0.061948895 -0.58906645 0
19.045492 -0.76425183 -0.57773519 0
-29.181631 15.275457 -0.38935959 0
-28.930748 15.323171 -0.3829847 0
-27.297064 14.655895 -0.39924446 0
-27.134714 14.627471 -0.33679265 0
-26.038094 14.011983 -0.39930925 0
-0.74281895 6.0012474 -0.28176811 0
0.10340104 5.5948892 -0.19601087 0
0.31705043 5.4488034 -0.17924988 0
-26.541105 14.357458 0.27219686 0
-26.369818 14.260207 0.25946397 0
-0.63633823 6.0060091 0.047144722 0
0.17082509 5.6502285 0.13005996 0
0.37105343 5.4756947 0.10525236 0
0.55969107 5.4467063 0.081125155 0
7.6214457 2.7816825 -2.0350909 0
7.7666383 2.7928548 -2.0562551 0
9.2593307 2.0649934 -2.1425149 0
9.6069899 1.9777647 -2.2050643 0
13.109224 0.8453027 -2.1729999 0
3.0345902 4.2941589 -1.7005463 0
3.2071342 4.1340904 -1.6786951 0
4.8803401 3.5145998 -1.7281386 0
5.190464 3.5096269 -1.8396375 0
5.5844135 3.4092355 -1.8871099 0
7.6463361 2.4569025 -1.8744618 0
8.2892103 2.4300742 -1.8397188 0
8.4934101 2.3650246 -1.7235113 0
9.5198488 2.0834427 -1.8081703 0
9.6868362 1.9413298 -1.8006767 0
10.270613 1.8307508 -1.6415919 0
10.335067 1.6950396 -1.6328056 0
14.721698 0.14473426 -1.6573149 0
16.267893 -0.12539685 -1.9176282 0
-22.916264 12.749084 -1.2185619 0
-22.787739 12.559879 -1.2054727 0
-21.827009 12.315211 -1.2329574 0
-21.403267 12.40508 -1.2304722 0
-21.217667 12.131781 -1.2818999 0
-20.155067 11.833894 -1.2253431 0
-19.756998 11.804568 -1.3324515 0
-19.735487 11.555367 -1.3230743 0
-17.482414 10.744805 -1.2059338 0
-16.578733 10.639865 -1.2164834 0
-16.029669 10.353786 -1.2747625 0
-15.885007 10.520932 -1.2657088 0
-15.24248 10.195254 -1.2189822 0
-14.958392 10.108987 -1.2800046 0
-13.484192 9.6058197 -1.2866791 0
-11.65033 9.0546484 -1.2086827 0
-11.2017 8.8665705 -1.2403033 0
-9.6036749 8.3398628 -1.21038 0
-9.4405231 8.3336458 -1.2259552 0
-8.1087132 7.8827491 -1.2496103 0
-6.4957075 7.3126411 -1.2147573 0
-5.3331556 7.1306314 -1.2022938 0
-2.1138606 6.0383863 -1.2113063 0
-1.1593612 5.6885567 -1.2036017 0
-0.38988617 5.3403163 -1.220219 0
-0.050899297 5.3703566 -1.3651633 0
0.08064577 5.2261286 -1.3949982 0
0.51407695 5.0240741 -1.2112515 0
1.0108386 4.837543 -1.4383357 0
1.2807934 4.7329245 -1.4960107 0
1.6038134 4.6453853 -1.5101812 0
2.1026883 4.2889419 -1.3083181 0
2.5925887 4.2371373 -1.2144337 0
3.6710167 3.8890815 -1.2834877 0
4.7448573 3.6999416 -1.2395428 0
5.3978944 3.2589607 -1.3334523 0
6.0968132 3.0503707 -1.5840822 0
7.0568089 3.0136962 -1.2117466 0
8.4325781 2.6001878 -1.2555263 0
8.5650358 2.3593044 -1.2555819 0
9.0057049 2.1694365 -1.282943 0
9.383502 2.1016617 -1.2965188 0
9.728961 2.0249896 -1.3105149 0
10.110793 1.8072215 -1.3203046 0
10.467596 1.8592607 -1.2373462 0
10.837041 1.5466172 -1.2760279 0
11.214236 1.4663171 -1.369036 0
11.822351 1.4362735 -1.2192967 0
11.976348 1.1856977 -1.2318798 0
12.198463 1.1198393 -1.2538587 0
13.948864 0.51078594 -1.479061 0
18.529652 -1.0335919 -1.3330446 0
-26.236166 13.774953 -0.98736525 0
-26.145872 13.724368 -0.97997594 0
-25.17444 13.426085 -0.9558239 0
-24.405809 13.218646 -0.92853826 0
-23.381516 12.90334 -0.92970181 0
-22.57921 12.632126 -1.0294864 0
-22.144451 12.442806 -0.95568484 0
-21.829119 12.358731 -0.95862538 0
-21.246077 12.243864 -1.194149 0
-21.210644 12.04166 -1.1862137 0
-20.196896 11.828853 -1.1516433 0
-20.004536 11.67015 -1.1917247 0
-19.437948 11.663552 -1.1373632 0
-19.064322 11.461719 -0.98829925 0
-18.776176 11.251056 -1.0783807 0
-18.421293 11.342918 -1.0966671 0
-18.085056 11.136683 -1.0203878 0
-17.542152 10.771326 -0.95800185 0
-17.267048 10.861341 -1.0443616 0
-16.948404 10.749503 -1.1164825 0
-16.383677 10.464774 -1.0268437 0
-16.203548 10.587057 -0.98166144 0
-15.711058 10.351583 -1.0110162 0
-14.896536 10.070601 -1.0590951 0
-14.567886 9.9959745 -1.0086452 0
-14.234861 9.8560457 -1.1352351 0
-13.811692 9.7275505 -1.0519809 0
-13.407325 9.5471563 -1.1094347 0
-13.085406 9.5147982 -1.1081458 0
-12.827414 9.3708401 -1.1414908 0
-12.338103 9.2241592 -1.106125 0
-11.96612 9.1085358 -1.0516282 0
-11.589088 8.996171 -1.0730829 0
-11.243999 8.8738747 -1.1059438 0
-10.782106 8.7220068 -0.98826283 0
-10.407367 8.6289635 -0.9649626 0
-10.013392 8.4648361 -0.99766076 0
-9.6317215 8.3407698 -1.0347495 0
-9.3409901 8.2374077 -0.90640515 0
-8.8999577 8.0795727 -1.0607389 0
-8.5085583 7.9634361 -1.0378313 0
-8.2706938 7.8594198 -1.1921972 0
-7.8713107 7.7593203 -1.1836895 0
-7.4372106 7.6298494 -1.0640445 0
-7.0551119 7.5093331 -0.93832785 0
-6.5963349 7.3415489 -1.040117 0
-6.289535 7.1697807 -0.94521224 0
-5.9186559 7.0417051 -0.97251344 0
-5.4735599 6.936408 -1.0451264 0
-5.1011238 6.8217344 -0.96863109 0
-4.7402468 6.7045326 -0.94862646 0
-4.3745513 6.5602474 -0.96880901 0
-4.0136533 6.4215078 -0.92951781 0
-3.5995846 6.3207498 -0.94062901 0
-3.2772191 6.1965656 -1.0050541 0
-2.5030434 5.821878 -1.090795 0
-2.0836973 5.8556957 -1.1042629 0
-1.7162057 5.752748 -1.0850297 0
-1.2821653 5.5722356 -1.0286534 0
-0.90085292 5.4786315 -1.0261182 0
-0.53320944 5.365087 -1.0351115 0
-0.15692058 5.2145967 -1.0804433 0
0.21104297 5.0691137 -1.0370824 0
0.55113745 4.9844275 -0.9862361 0
1.0025862 4.8418298 -1.1209337 0
1.3389915 4.723465 -1.0671246 0
1.7454072 4.6255007 -1.0072949 0
2.2791302 4.5141711 -1.0307413 0
2.4458964 4.3668308 -1.0346295 0
2.8360193 4.2391944 -1.0136099 0
3.2424712 4.0951028 -0.94802558 0
3.7016649 3.9737029 -0.9185884 0
3.9117582 3.8063569 -0.97526145 0
4.4278474 3.6620121 -0.95832962 0
9.1612654 2.2837324 -1.1496118 0
9.16607 2.084363 -1.1534262 0
9.8096266 1.9516124 -1.0664051 0
11.750772 1.3690079 -1.186839 0
12.873316 0.95223868 -1.1916835 0
13.152748 0.82305515 -1.1632082 0
13.45891 0.71340048 -1.1433108 0
14.248599 0.47091186 -1.1153927 0
15.087853 0.18249881 -1.0364645 0
15.321576 0.13503826 -0.91070837 0
16.539993 -0.25905287 -1.0428253 0
-29.130461 14.836804 -0.41555935 0
-28.256134 14.526536 -0.46182564 0
-28.075798 14.369781 -0.41816178 0
-26.853868 14.000846 -0.65478247 0
-25.770521 13.856423 -0.53464484 0
-25.7393 13.592196 -0.52811962 0
-25.213057 13.506288 -0.73755276 0
-23.727543 13.118983 -0.7978214 0
-14.910908 10.080482 -0.68618071 0
-14.624913 10.005187 -0.66575652 0
-14.037161 9.9027748 -0.78946257 0
-13.854644 9.738018 -0.76408589 0
-13.622241 9.5706654 -0.73575187 0
-12.869402 9.5854101 -0.73028123 0
-12.726296 9.3835688 -0.71902484 0
-12.473752 9.1788998 -0.70298117 0
-11.770273 9.1574831 -0.79434425 0
-11.599593 9.0049849 -0.7826485 0
-11.291791 8.8370104 -0.75119537 0
-10.392618 8.6267529 -0.72473752 0
-10.193246 8.346796 -0.76745641 0
-9.4333382 8.471076 -0.76574373 0
-9.2311716 8.2954206 -0.7783767 0
-8.9030828 8.0836306 -0.77640527 0
-8.5276051 7.97999 -0.7797991 0
-8.2383327 7.7562218 -0.78931999 0
-3.2472925 6.1516514 -0.61777896 0
-2.8667853 6.294867 -0.67247242 0
-1.7088519 5.7490411 -0.74931067 0
-1.1963282 5.510272 -0.71675551 0
-0.90180612 5.43821 -0.66182774 0
-0.70612752 5.352644 -0.72851056 0
-0.36491612 5.1004362 -0.61020356 0
0.33295676 5.0348182 -0.52463102 0
0.47219476 4.9218345 -0.676117 0
0.91587543 4.8355575 -0.53382325 0
1.27626 4.7503104 -0.42895839 0
1.7509211 4.5758982 -0.56371415 0
2.1194618 4.4980927 -0.46658275 0
2.491082 4.3520012 -0.45820627 0
2.7601123 4.2685075 -0.58795917 0
3.2876318 3.9811954 -0.41608974 0
3.5080438 4.0468931 -0.50139242 0
4.0028138 3.8285241 -0.76672554 0
4.3729596 3.7518845 -0.44563648 0
5.8374758 3.2338099 -0.56057733 0
10.934707 1.4417154 -0.59937221 0
13.910458 0.59466159 -0.64834553 0
15.335235 0.17130792 -0.66011184 0
15.73617 -0.016765475 -0.70098597 0
16.213686 -0.17461121 -0.63192773 0
16.523685 -0.30847108 -0.55897319 0
18.523716 -1.1273099 -0.55579937 0
18.771547 -0.98246682 -0.5665614 0
-27.085405 14.076999 -0.32471997 0
-26.664219 13.94919 -0.33281001 0
-26.026646 13.744511 -0.39383593 0
-0.81055164 5.4178057 -0.23966628 0
-0.70345926 5.2515697 -0.22729619 0
0.19694325 5.2263331 -0.22009809 0
2.2437577 4.2980547 -0.39336869 0
2.7387767 4.2022066 -0.39396143 0
3.3839231 3.905664 -0.39782161 0
4.1125789 3.6518168 -0.36482865 0
4.2230759 3.7159801 -0.37903005 0
-26.604851 13.962228 0.26916543 0
-26.452354 13.922988 0.2569524 0
-25.270723 13.371961 0.14400724 0
-0.7133131 5.3576555 0.06465745 0
0.25275633 5.2268329 0.11843344 0
9.3114119 1.6861936 -2.2095616 0
9.3939447 1.6079012 -2.258075 0
13.005269 0.482319 -2.1805668 0
13.227422 0.26875103 -2.1987238 0
3.0085626 3.8215165 -1.6570771 0
4.8498349 3.3225799 -1.7385358 0
5.0056758 3.150322 -1.7823602 0
5.2898865 3.0034933 -1.8955207 0
7.4511213 2.3823209 -1.8521966 0
7.5954757 2.432725 -1.8690286 0
8.2661419 2.1433549 -1.86151 0
8.383956 1.9551231 -1.7855581 0
9.5926371 1.595549 -1.8304827 0
10.145044 1.4426969 -1.6423171 0
10.238443 1.412186 -1.6555015 0
14.523686 -0.15802348 -1.7066675 0
-23.016367 12.305371 -1.2089417 0
-22.804852 12.362145 -1.2034389 0
-22.102438 12.022285 -1.2399569 0
-21.1544 11.708804 -1.2657983 0
-20.352419 11.282369 -1.2053137 0
-20.082325 11.368241 -1.2086918 0
-19.669296 11.210851 -1.3075455 0
-17.635403 10.532969 -1.2088795 0
-17.516972 10.704242 -1.2069612 0
-16.673893 10.289657 -1.2091579 0
-16.120911 10.053141 -1.2733339 0
-15.436065 9.8652811 -1.2137341 0
-15.081371 9.7291489 -1.2794126 0
-13.901776 9.2786245 -1.3179367 0
-13.604124 9.4064207 -1.2905171 0
-11.295991 8.4822769 -1.2238911 0
-9.6103792 8.0280819 -1.205646 0
-9.4585981 8.0068464 -1.2074478 0
-8.1557655 7.4501524 -1.2375493 0
-6.5712113 7.063242 -1.2018634 0
-2.1519809 5.2501683 -1.204969 0
-0.61798429 4.9381208 -1.2648848 0
-0.085193664 4.8898654 -1.2004157 0
-0.063578874 4.8166785 -1.2019641 0
0.56825566 4.5986791 -1.2051935 0
0.8521539 4.4378562 -1.4301852 0
1.0867803 4.3939657 -1.5204097 0
1.6186498 4.2991309 -1.2959106 0
1.958483 4.1107979 -1.3446864 0
2.8255959 3.829215 -1.203585 0
3.6086376 3.6889019 -1.2825733 0
3.7371087 3.466979 -1.2494949 0
6.0377669 2.9240103 -1.5835335 0
8.1559801 2.219532 -1.2312533 0
8.3332319 1.9141942 -1.375447 0
8.7528162 1.9077514 -1.3208818 0
9.1431236 1.7698363 -1.2695134 0
9.5984049 1.5155948 -1.3150086 0
9.9550362 1.5280677 -1.2947111 0
10.280097 1.2757174 -1.2906741 0
10.715335 1.2017235 -1.3156843 0
11.072551 1.0929538 -1.3320183 0
11.891774 0.8359648 -1.2359622 0
12.116206 0.92181408 -1.2521139 0
12.875233 0.3323878 -1.2017851 0
13.868278 0.14658868 -1.4833977 0
18.339224 -1.3099667 -1.3321868 0
18.675526 -1.4457773 -1.2730188 0
-26.354553 13.471936 -0.98308933 0
-26.361677 13.27372 -0.97624344 0
-25.391027 13.135193 -1.0500242 0
-25.153748 12.983925 -0.921 0
-24.432068 12.959563 -0.92723662 0
-24.336853 12.683661 -0.91112542 0
-23.462532 12.470866 -0.95543963 0
-22.935631 12.266798 -0.81402165 0
-22.684225 12.210233 -1.1370975 0
-22.348618 12.108159 -0.91394109 0
-22.023573 12.000692 -0.96348405 0
-21.274078 11.759656 -1.1840678 0
-20.266455 11.460652 -1.1352466 0
-20.149693 11.4054 -1.1816437 0
-19.307615 11.11402 -1.0013783 0
-18.768036 11.115088 -1.1145108 0
-18.204214 10.754749 -0.98821926 0
-17.790131 10.607616 -0.98631907 0
-17.259939 10.299952 -1.1066695 0
-17.087118 10.439965 -1.0997865 0
-16.512325 10.212029 -1.0693538 0
-16.375711 10.068637 -0.99068058 0
-15.880956 9.9849615 -1.0133551 0
-15.537505 9.693161 -1.1971695 0
-15.044027 9.7195501 -1.0542747 0
-14.696127 9.5932302 -0.97570866 0
-14.350713 9.498971 -1.1247926 0
-13.988316 9.3659487 -1.0439228 0
-13.626473 9.2387266 -1.0784378 0
-13.27826 9.1216593 -1.0675745 0
-12.836943 8.9477758 -1.1070305 0
-12.44706 8.8683844 -1.1281188 0
-12.08554 8.7260323 -0.99619442 0
-11.622658 8.5637484 -1.0794024 0
-11.276748 8.5068712 -1.1431066 0
-10.912114 8.3588257 -1.0296762 0
-10.598024 8.2059078 -0.90425092 0
-10.108283 8.1105299 -0.98948795 0
-9.7805614 7.9681454 -1.0119689 0
-9.4331818 7.8197632 -0.96830201 0
-9.0623083 7.7167721 -0.95393181 0
-8.581275 7.6288419 -1.0012541 0
-8.3749838 7.4584432 -0.88452882 0
-7.9022422 7.3506575 -1.0508488 0
-7.5826726 7.2304401 -1.0583984 0
-6.7270064 6.9698839 -1.1269431 0
-6.447186 6.9174395 -1.021534 0
-5.9594197 6.6875157 -0.91591549 0
-5.5828223 6.609602 -0.95808023 0
-5.2664132 6.5147557 -0.92602074 0
-4.96209 6.5851049 -0.99464166 0
-4.3169799 6.3192616 -1.0663941 0
-4.0972853 6.2639055 -1.0859495 0
-3.6067884 6.0484977 -0.97142112 0
-3.2812366 5.8829556 -1.0133715 0
-2.9839268 5.668931 -1.0192225 0
-2.5777597 5.6225405 -1.0730816 0
-2.1505632 5.4245925 -1.077615 0
-1.8754791 5.376946 -1.0740572 0
-1.4848074 5.2465653 -1.0263441 0
-0.93570173 4.9448099 -0.97425431 0
-0.66070843 4.9670358 -1.0608048 0
-0.3896586 4.8949389 -0.98683548 0
0.12095997 4.6911073 -0.98843193 0
0.38839933 4.6352644 -1.0540717 0
0.84742177 4.4444709 -1.1048084 0
1.2028682 4.3448896 -0.98927915 0
1.5639361 4.1808782 -1.0231295 0
1.9716834 4.1270013 -1.1925933 0
2.4710193 3.9226747 -1.1379182 0
2.6749859 3.8900161 -0.93753076 0
3.2101874 3.6860418 -0.88773507 0
3.7493105 3.516571 -0.85539085 0
4.3927703 3.2953949 -0.97430104 0
9.1488838 1.7454873 -1.1578726 0
9.8259897 1.7188021 -1.0741881 0
9.8165121 1.4937366 -1.0796226 0
11.635802 0.86002529 -1.1824986 0
11.658872 0.81697404 -1.1853924 0
12.982055 0.47415245 -1.1643474 0
13.316148 0.38015068 -1.1399212 0
13.652824 0.11797273 -0.92887139 0
14.160722 0.069394231 -1.0838112 0
14.70885 -0.03578794 -1.0397102 0
14.862268 0.011699796 -1.0438056 0
16.401854 -0.58222425 -1.0278726 0
-28.847843 14.21414 -0.44415531 0
-28.098877 14.009648 -0.41153187 0
-27.504675 13.888896 -0.45568085 0
-27.425291 13.801433 -0.45152506 0
-26.966894 13.651058 -0.64915437 0
-25.997932 13.32128 -0.5327791 0
-25.880926 13.278483 -0.50167519 0
-25.246296 13.231456 -0.73520947 0
-24.595289 12.648509 -0.63065541 0
-23.478357 12.453672 -0.67742348 0
-14.873442 9.8548231 -0.68140304 0
-14.868204 9.6344404 -0.68102622 0
-14.059866 9.3777456 -0.78074121 0
-12.782107 8.9663687 -0.72173023 0
-12.382943 8.8980656 -0.69602293 0
-12.247504 8.7216215 -0.68584341 0
-11.629266 8.5885859 -0.7814725 0
-11.228909 8.5157604 -0.75027794 0
-11.04178 8.2887211 -0.75885397 0
-10.452952 8.0647545 -0.71736276 0
-10.097584 8.1217318 -0.77174008 0
-9.8598185 7.8718491 -0.76580805 0
-9.6043653 7.7700596 -0.74150336 0
-8.6133699 7.6717205 -0.79158342 0
-8.2130833 7.5467014 -0.78794289 0
-7.9282432 7.3646059 -0.78901255 0
-4.8088799 6.1473126 -0.68987942 0
-4.5318909 6.1238775 -0.74019951 0
-4.2092481 5.9533434 -0.74791938 0
-3.6801248 5.9576931 -0.62293655 0
-3.3083298 5.9181347 -0.63717872 0
-3.0326595 5.6926541 -0.63704312 0
-2.0676022 5.3190098 -0.77811849 0
-1.949478 5.489151 -0.76262534 0
-1.3206816 5.1943264 -0.71659589 0
-1.0509943 5.1627674 -0.71758294 0
-0.71340466 4.9127836 -0.63356239 0
-0.42767313 5.0001984 -0.59906709 0
0.14246914 4.6789141 -0.5861904 0
0.3216885 4.6414309 -0.50948602 0
0.8444736 4.4706087 -0.52923048 0
1.1864867 4.3589859 -0.41980931 0
1.6320894 4.2042794 -0.54050636 0
2.022254 4.1669025 -0.40116167 0
2.4330602 3.9422789 -0.44414419 0
2.6456339 3.8815885 -0.63491988 0
3.2528191 3.724957 -0.40835407 0
3.3660641 3.6981792 -0.43857366 0
3.792098 3.4633379 -0.40403706 0
4.203269 3.4223228 -0.48703048 0
5.5361485 2.7929535 -0.41403505 0
5.6536589 2.9761524 -0.50903964 0
10.775352 1.1791729 -0.59451079 0
13.93274 0.12963498 -0.65482557 0
13.979513 0.16275156 -0.65728956 0
14.629102 -0.079136252 -0.62391019 0
14.679015 -0.19430554 -0.62890005 0
15.314383 -0.31191099 -0.68421727 0
15.62798 -0.22838819 -0.69451517 0
16.13163 -0.48718989 -0.59897941 0
16.382532 -0.58161104 -0.55653268 0
18.310682 -1.3140792 -0.54765481 0
-29.021673 14.109783 -0.39880678 0
-27.109684 13.756121 -0.31967726 0
-27.01701 13.55731 -0.31300822 0
-26.620573 13.659108 -0.32602745 0
-0.90570128 5.0286546 -0.33202565 0
-0.83720922 5.0243602 -0.16097063 0
2.0793087 4.0432038 -0.39021331 0
2.4731669 3.8995519 -0.39455235 0
2.5929108 3.8951311 -0.38223743 0
3.2090015 3.6343412 -0.39383399 0
3.2535028 3.4778695 -0.39988369 0
3.917748 3.4423227 -0.35838714 0
4.0950804 3.2434211 -0.38394499 0
-26.586191 13.398021 0.26646832 0
-25.355339 13.090548 0.14399162 0
-0.82482231 4.9836497 0.058163334 0
9.0875044 1.3259748 -2.2098043 0
12.922253 0.0880512 -2.1943362 0
13.339625 -0.097006917 -2.2348788 0
5.2205806 2.6273551 -1.8691846 0
8.0035515 1.5860215 -1.882787 0
8.3048601 1.6164972 -1.7920958 0
9.54175 1.2006918 -1.8615924 0
10.535942 0.78968346 -1.6515166 0
14.034433 -0.46030128 -1.6223677 0
-23.002726 12.059552 -1.2008331 0
-22.219032 11.637312 -1.22861 0
-21.051056 11.321769 -1.2479777 0
-20.557228 11.084195 -1.2157577 0
-19.570923 10.93699 -1.291752 0
-19.436852 10.650917 -1.2729781 0
-17.697374 10.297662 -1.2019564 0
-17.034697 9.827136 -1.2283689 0
-16.821323 9.9078159 -1.2068465 0
-16.092199 9.6302719 -1.2552254 0
-15.487455 9.2447672 -1.2873588 0
-15.314244 9.4062719 -1.2737206 0
-14.896604 9.2435608 -1.2597584 0
-14.689931 9.0834351 -1.2311593 0
-14.046726 8.8841372 -1.3173064 0
-13.795639 9.0092773 -1.2942305 0
-11.354455 8.1297131 -1.2039336 0
-8.1371365 7.1314993 -1.2088424 0
-2.2050681 4.9971132 -1.200569 0
-2.0401897 4.8658471 -1.2375685 0
0.85195899 4.1691914 -1.471642 0
0.96052539 4.1873674 -1.549348 0
1.8611338 3.7322841 -1.2445717 0
3.7229135 3.3007388 -1.2467541 0
8.0284843 1.5620657 -1.5239815 0
8.3355112 1.6815137 -1.4260418 0
8.5995016 1.4692429 -1.3333546 0
9.0294991 1.3332459 -1.3131267 0
9.4020634 1.2322212 -1.2959205 0
9.8609638 1.0641445 -1.2901565 0
10.175107 1.0020605 -1.3139508 0
10.524222 0.79716933 -1.3057319 0
10.979848 0.74750984 -1.3060743 0
11.465632 0.4245044 -1.2096395 0
11.63528 0.57343328 -1.218064 0
12.883398 0.05084455 -1.2048978 0
14.074183 -0.30322421 -1.5177284 0
14.204742 -0.52408135 -1.5374871 0
18.331381 -1.7305049 -1.3074332 0
18.533165 -1.7638763 -1.2631215 0
-26.378126 13.001772 -0.96753621 0
-25.406618 12.845963 -1.0596251 0
-25.200531 12.604361 -0.96211374 0
-24.440002 12.407605 -0.90579569 0
-23.482868 12.084119 -0.94737571 0
-23.449387 11.862623 -0.93980229 0
-22.886719 11.876683 -1.021736 0
-22.492651 11.7228 -0.99462408 0
-22.092188 11.589216 -0.96796286 0
-21.199074 11.35888 -1.1688186 0
-21.082439 11.319878 -1.158854 0
-20.296329 11.022648 -1.112106 0
-19.73641 10.800179 -0.97331852 0
-19.477577 10.802485 -1.0525396 0
-18.63682 10.401081 -0.93040365 0
-18.324636 10.364304 -1.0519335 0
-17.961973 10.337211 -1.0229558 0
-17.500137 10.062669 -1.1279038 0
-16.701393 10.023974 -1.1983161 0
-16.374212 9.7590466 -0.96168989 0
-16.025858 9.6041546 -1.0015539 0
-15.652926 9.443924 -1.0870166 0
-15.090566 9.3116522 -1.0812643 0
-14.783782 9.1970177 -0.96027225 0
-14.494465 9.1054258 -1.1118659 0
-14.078026 8.9700327 -1.0645849 0
-13.727611 8.8379831 -1.0147256 0
-13.418515 8.7766409 -1.060956 0
-12.897124 8.5602598 -1.0965048 0
-12.58415 8.4931974 -1.1027591 0
-12.187862 8.3750706 -0.97778946 0
-11.79904 8.2037601 -1.059471 0
-11.404048 8.0478601 -1.1485113 0
-11.053755 7.9859142 -1.0431845 0
-10.700406 7.8666773 -0.95794129 0
-10.297675 7.7209191 -0.9356668 0
-9.9047184 7.5880556 -1.0327022 0
-9.5512486 7.4713216 -0.93744785 0
-9.2100449 7.3828273 -0.97495866 0
-8.7315016 7.2032151 -1.0152837 0
-8.4499388 7.1107717 -0.96718478 0
-7.997601 6.964447 -0.93372411 0
-7.6310639 6.8249664 -0.92914575 0
-7.3026114 6.6054306 -0.87141532 0
-6.8721919 6.5934296 -0.95559132 0
-6.4978561 6.5404453 -0.95291787 0
-6.125298 6.4012566 -0.90247822 0
-5.6887717 6.2840357 -0.96449095 0
-5.3916707 6.1254544 -0.97712529 0
-4.9787812 6.0175853 -0.97311544 0
-4.6387491 5.7911725 -0.99925596 0
-4.2226062 5.7077546 -0.98563862 0
-3.9974027 5.6603098 -0.98470759 0
-3.052659 5.3552866 -0.94225955 0
-2.7258992 5.1702924 -1.0040495 0
-2.3018148 5.1003475 -1.0501653 0
-1.8623632 4.9477777 -1.0559868 0
-1.6029168 4.8582654 -1.0341158 0
-1.1385875 4.7014275 -1.02053 0
-0.77329516 4.5250759 -0.98732752 0
-0.45100847 4.465014 -1.0079451 0
-0.056596786 4.3411436 -0.947007 0
0.36721531 4.1713333 -1.0003521 0
0.74680495 4.1242328 -0.92984319 0
1.0357857 4.1622243 -0.86980778 0
1.497432 3.8075681 -1.0416925 0
1.7266182 3.5600924 -1.0403528 0
2.2184546 3.5798254 -1.0163585 0
3.1405404 3.3135662 -0.85451007 0
3.6393147 3.1280026 -0.84272164 0
4.3080888 3.0796771 -0.91350865 0
9.0434132 1.3380822 -1.155666 0
9.6937332 1.2995912 -1.0735633 0
9.6723146 1.1066836 -1.0773985 0
10.401216 0.7763685 -1.1567221 0
11.340212 0.42392647 -1.1826499 0
11.603865 0.45821846 -1.1276975 0
12.685995 0.19946873 -1.0930495 0
12.91428 0.099177241 -1.1410609 0
13.227386 -0.056454301 -0.95607716 0
13.701581 -0.12573183 -1.0240061 0
14.054343 -0.28477132 -0.83424193 0
16.022873 -0.98070943 -1.1418849 0
16.240952 -1.0060574 -1.0414424 0
-29.156826 13.992822 -0.40125588 0
-28.130882 13.517271 -0.40286568 0
-27.403057 13.188461 -0.44315732 0
-25.952246 12.932913 -0.52361286 0
-24.591318 12.410455 -0.62763703 0
-24.44215 12.422136 -0.62113434 0
-23.499727 12.071565 -0.67420876 0
-14.808911 9.2287264 -0.67620331 0
-14.696387 8.9948311 -0.66550827 0
-14.050961 8.9585209 -0.77306479 0
-12.612043 8.4908113 -0.70534879 0
-11.605496 8.315959 -0.76986372 0
-11.481953 8.0893021 -0.77128559 0
-10.953514 8.0029068 -0.75406235 0
-10.74537 7.7920351 -0.75206542 0
-10.266867 7.7578111 -0.72688878 0
-9.984519 7.5316887 -0.75852174 0
-9.522378 7.4927111 -0.77563554 0
-9.1868658 7.2758899 -0.77455938 0
-8.8829937 7.2218447 -0.76028967 0
-5.2566714 5.9644203 -0.59135872 0
-4.9613433 6.0289488 -0.60299915 0
-4.6482005 5.8071494 -0.64208823 0
-4.1518407 5.6936131 -0.64471889 0
-3.9277244 5.7219639 -0.652722 0
-3.0132494 5.4193487 -0.56985259 0
-2.7281694 5.2022791 -0.59906524 0
-2.2814453 5.0655761 -0.72706419 0
-1.8270022 4.7767272 -0.74317598 0
-1.6007801 4.919323 -0.74979597 0
-1.1519231 4.5288134 -0.79583102 0
-0.74384022 4.5979919 -0.65184587 0
-0.59268963 4.3343062 -0.79753399 0
0.018414825 4.317256 -0.51522267 0
0.27162787 4.2348824 -0.53130627 0
0.70089722 4.1045122 -0.49049273 0
1.0060897 3.9793959 -0.47253412 0
1.4620671 3.8558378 -0.50081384 0
1.6999402 3.6997046 -0.71561092 0
2.2850742 3.5894909 -0.44181535 0
2.6518736 3.4537196 -0.73856974 0
3.047358 3.1275735 -0.41942325 0
4.4687362 2.9779239 -0.40391397 0
5.4577899 2.585006 -0.40709773 0
10.589262 0.83706439 -0.58987546 0
13.721853 -0.22615588 -0.64646262 0
13.903487 -0.063732982 -0.6553753 0
14.502516 -0.40714824 -0.62285417 0
15.085953 -0.66532838 -0.65382451 0
15.363837 -0.75016797 -0.61347961 0
15.799378 -0.78892267 -0.71230751 0
18.106474 -1.5662488 -0.54118049 0
-29.160246 13.905429 -0.39987597 0
-27.1712 13.460395 -0.31652448 0
-0.88392222 4.823267 -0.09880992 0
0.15294525 4.0771885 -0.39744556 0
0.63050449 3.9268837 -0.39972645 0
0.95079231 3.8199353 -0.39964047 0
1.4182285 3.7030277 -0.39722273 0
1.9031935 3.6998425 -0.37707812 0
2.3206699 3.5315123 -0.37823215 0
2.5999753 3.5337906 -0.36474082 0
3.0266695 3.3427649 -0.38541156 0
3.2376368 3.2463765 -0.38643441 0
3.716424 3.1009774 -0.3764866 0
4.0134592 2.9977612 -0.38726068 0
4.4000473 2.8114963 -0.39552686 0
5.3718133 2.4078255 -0.3990781 0
-26.600555 13.093741 0.26506519 0
-0.86551702 4.8182678 0.054399367 0
8.9144602 1.0435642 -2.1565793 0
12.698728 -0.18876851 -2.1540592 0
13.153092 -0.46094692 -2.2881143 0
13.396846 -0.43993032 -2.2635224 0
6.8271351 1.4604939 -1.6034929 0
7.5602584 1.4131547 -1.8242381 0
7.8106055 1.3897084 -1.845546 0
8.2571306 1.2361494 -1.7768644 0
9.0733767 0.87978399 -1.7899187 0
9.3673553 0.80703223 -1.8226492 0
10.493887 0.45171416 -1.6536351 0
13.906078 -0.59155834 -1.6159739 0
-22.298773 11.237661 -1.2142725 0
-20.873762 10.95527 -1.225221 0
-20.75931 10.718575 -1.2159419 0
-19.399378 10.316008 -1.2609711 0
-19.347286 10.241621 -1.254769 0
-17.196646 9.5388241 -1.2330528 0
-16.992861 9.5928535 -1.2088618 0
-16.012878 9.1893101 -1.2321798 0
-15.632398 9.076787 -1.2699705 0
-15.585423 8.8687716 -1.2858829 0
-15.065917 8.8474941 -1.2679698 0
-14.211358 8.5850964 -1.3240837 0
0.64197814 3.6584654 -1.2012155 0
1.7415125 3.4427476 -1.2147464 0
2.646996 3.1037469 -1.2048373 0
2.8136597 2.9341998 -1.246917 0
7.8368421 1.3442556 -1.5027304 0
7.9722676 1.1164252 -1.5258803 0
8.5690212 1.098303 -1.2551233 0
8.982872 0.99234617 -1.2705264 0
9.2729282 0.85945117 -1.3212221 0
9.7723093 0.71414602 -1.2778211 0
10.013591 0.56179893 -1.2825413 0
10.459086 0.43895781 -1.3375956 0
10.93547 0.29186332 -1.2394633 0
11.369653 0.32749188 -1.2052487 0
12.762177 -0.21011341 -1.2013417 0
12.994269 -0.36781394 -1.2104605 0
14.235106 -0.64554822 -1.5446087 0
17.555946 -2.0620732 -1.2115507 0
18.604851 -2.0769725 -1.2244127 0
19.345337 -2.6109481 -1.312863 0
19.560863 -2.6107435 -1.3003113 0
-26.624281 12.683659 -0.97175294 0
-25.488884 12.302583 -1.048403 0
-25.144171 12.174209 -0.89378625 0
-24.478374 11.960336 -0.90590185 0
-23.725311 11.646363 -0.81438404 0
-23.458925 11.619759 -0.93507558 0
-22.860645 11.53087 -1.1757857 0
-22.50909 11.338914 -1.037559 0
-22.174816 11.204558 -0.97796065 0
-22.054482 11.003804 -0.9478119 0
-20.728462 10.592943 -1.1155009 0
-20.277308 10.578761 -1.0852984 0
-19.985435 10.480472 -0.9801603 0
-19.541498 10.327781 -1.1434489 0
-19.050621 10.093434 -0.95051605 0
-18.826237 10.142229 -0.94030225 0
-18.377523 9.9954615 -1.0381829 0
-17.654085 9.7221727 -1.1296072 0
-16.857841 9.5596304 -1.1933687 0
-16.534403 9.3640747 -0.9488852 0
-16.077908 9.2445707 -0.98695534 0
-15.728203 9.0995588 -1.0575787 0
-15.453148 8.9852009 -0.81619781 0
-15.167529 8.8979473 -1.0511883 0
-14.613634 8.7320623 -1.0207318 0
-14.16751 8.5678644 -1.1136043 0
-13.761415 8.4551659 -0.95436144 0
-13.515642 8.3320885 -0.98185295 0
-13.020721 8.1998024 -1.0914021 0
-12.677505 8.1008062 -1.046858 0
-12.34759 7.9670696 -0.99620473 0
-11.981044 7.8512802 -1.0128402 0
-11.524761 7.7286739 -1.1277812 0
-11.204435 7.6056547 -1.0547835 0
-10.840935 7.4757662 -0.9699986 0
-10.353313 7.3497448 -0.92202604 0
-10.070062 7.2083206 -0.9828856 0
-9.6540413 7.1202283 -0.97066021 0
-9.3346748 6.9523563 -0.94684619 0
-8.8310204 6.8211422 -0.95443231 0
-8.6028194 6.7241831 -0.98363501 0
-8.0942354 6.5726681 -1.0360523 0
-7.712822 6.4955721 -0.99727845 0
-7.4006505 6.3220339 -0.88542134 0
-6.9980993 6.219511 -0.90754616 0
-6.6690912 6.0656462 -0.97803056 0
-6.2672696 5.9139032 -0.8579787 0
-5.9696016 5.7679691 -0.88490278 0
-5.6121359 5.7291946 -1.0719533 0
-5.248868 5.4919233 -0.8707366 0
-4.6492262 5.574213 -0.98148316 0
-4.3067164 5.3765049 -0.90681672 0
-4.013855 5.2930765 -0.97580749 0
-3.4921579 5.0350046 -1.0997629 0
-3.1508794 5.082015 -1.0962268 0
-2.8873243 4.8614407 -1.0151926 0
-2.4463036 4.7404218 -0.98947203 0
-2.0307834 4.5581336 -1.0650803 0
-1.6915139 4.4963722 -1.0206923 0
-1.2901462 4.280426 -1.0384961 0
-0.96944487 4.2734251 -0.94738644 0
-0.51866698 4.0668602 -1.0042622 0
-0.22328779 3.9975705 -0.94235796 0
0.18605426 3.8351388 -0.97376734 0
0.60747278 3.7011056 -1.0529912 0
1.7718096 3.3648982 -1.0857295 0
2.1375532 3.3166685 -1.0013329 0
2.5198855 3.1572843 -0.98353404 0
2.9728723 2.9859953 -0.90769851 0
3.2644639 2.823503 -0.99420083 0
3.5345268 2.6831527 -0.95693982 0
7.5864577 1.5810009 -1.1816653 0
7.6597071 1.3161515 -1.1937314 0
8.9170313 0.96548474 -1.1515296 0
9.625741 0.74412429 -1.0845193 0
10.326203 0.71268666 -1.1516194 0
10.478918 0.38932121 -1.149009 0
10.824554 0.2505666 -1.1455579 0
11.222898 0.23120153 -1.0957083 0
11.612094 0.11462748 -1.0252934 0
12.07904 -0.22592413 -0.92606622 0
12.349298 -0.086828589 -0.96410125 0
12.842555 -0.35742748 -1.0030251 0
13.070497 -0.34288228 -1.0234365 0
13.417651 -0.55491173 -0.83529687 0
14.148436 -0.74761856 -0.84727496 0
15.863079 -1.3900167 -1.0640845 0
16.185732 -1.360293 -1.0550122 0
17.744467 -1.9450363 -1.1696255 0
-28.261181 13.181911 -0.40088537 0
-27.353178 13.086173 -0.440056 0
-25.92523 12.646581 -0.41343892 0
-24.593433 12.014348 -0.62323648 0
-23.648697 11.684433 -0.67732203 0
-23.50008 11.637899 -0.669761 0
-23.037031 11.524671 -0.78663611 0
-15.292405 8.8100281 -0.78557944 0
-15.070759 8.7017164 -0.76812339 0
-14.574906 8.7537889 -0.70340002 0
-14.081726 8.6003132 -0.77252364 0
-14.064265 8.3758068 -0.76882529 0
-12.532285 8.1718502 -0.70202041 0
-12.418777 7.9157877 -0.69404101 0
-11.388257 7.8523669 -0.76517338 0
-11.193337 7.5943165 -0.73592192 0
-10.785431 7.4757085 -0.73565304 0
-10.540433 7.2864375 -0.75860494 0
-9.9273853 7.2951627 -0.74791616 0
-9.6834784 7.0956874 -0.75546026 0
-9.4332895 6.9272065 -0.75750035 0
-6.1741991 6.0806756 -0.70082456 0
-5.8617244 5.8238859 -0.6828962 0
-5.5342593 5.72015 -0.6282233 0
-5.1870518 5.6325722 -0.58798927 0
-4.5852547 5.5040236 -0.6285423 0
-4.385705 5.3640375 -0.59313631 0
-4.1177945 5.1204062 -0.59230143 0
-2.707027 4.91432 -0.63946384 0
-2.5176876 4.817749 -0.65253454 0
-1.9849828 4.5528808 -0.76111794 0
-1.8515128 4.4226446 -0.72894365 0
-1.2930509 4.2725987 -0.77710944 0
-0.90868914 4.2045026 -0.68936765 0
-0.51652944 4.0641642 -0.79401088 0
-0.1451259 4.0104814 -0.55932999 0
0.13798007 3.8098269 -0.60144979 0
0.57658041 3.7263327 -0.53157276 0
0.91097248 3.6073451 -0.73643327 0
1.221898 3.5105405 -0.41890582 0
1.7122554 3.3532948 -0.68658602 0
2.0874264 3.203599 -0.42171571 0
2.5169685 3.0570931 -0.68696707 0
2.9112916 2.947114 -0.48589006 0
3.1907706 2.8672318 -0.78375977 0
9.8703136 0.77629721 -0.65737236 0
10.476501 0.47535479 -0.59060496 0
13.680684 -0.48329961 -0.64735776 0
13.76257 -0.73267162 -0.65572768 0
14.311013 -0.89065039 -0.63581032 0
17.409664 -1.8370539 -0.50996178 0
-29.113972 13.620453 -0.39356121 0
-28.204254 13.161775 -0.39862105 0
-4.3976927 5.1805339 -0.33769834 0
0.09016791 3.8805528 -0.39521068 0
0.56089008 3.6870112 -0.39151308 0
0.83560896 3.6533713 -0.38932505 0
1.2921849 3.4738698 -0.39202744 0
1.7099918 3.350131 -0.36305472 0
2.139672 3.2011933 -0.36614341 0
2.8495996 2.9702392 -0.37694135 0
3.1228809 2.8827105 -0.3830395 0
3.6895242 2.6877151 -0.3774431 0
4.2688804 2.5024776 -0.3827087 0
4.8746877 2.1017635 -0.33418009 0
5.1718149 2.2164669 -0.37521023 0
12.375508 -0.19120491 -0.24438083 0
-26.722034 12.706443 0.26245585 0
-26.577238 12.592113 0.2629379 0
13.189323 -0.71344006 -2.3078296 0
13.219212 -0.94643605 -2.2754676 0
6.8941483 1.2574527 -1.6185691 0
7.4207768 1.0263685 -1.8751997 0
7.7106662 0.91485488 -1.795301 0
8.0504837 0.90584862 -1.7421293 0
8.4118385 0.75259078 -1.6746868 0
8.7863312 0.56595337 -1.8233325 0
9.1524982 0.58208859 -1.8034407 0
10.286865 0.23071516 -1.6318786 0
14.084091 -1.259149 -1.6584558 0
-22.379976 10.882174 -1.2034628 0
-21.076948 10.428157 -1.2380928 0
-20.822037 10.373186 -1.2082371 0
-19.513628 10.072011 -1.2639275 0
-19.433573 9.9660215 -1.2547476 0
-17.356531 9.2240133 -1.2354398 0
-17.19552 8.9942856 -1.2209631 0
-16.184706 8.7969999 -1.2401153 0
-15.581435 8.6193495 -1.27775 0
-15.068538 8.5578728 -1.2607927 0
-14.228041 8.1741629 -1.3107007 0
-2.1672835 4.3405437 -1.2001086 0
-1.4554654 3.8213892 -1.2080313 0
0.54367077 3.2870874 -1.4747281 0
0.7050705 3.3841701 -1.4913419 0
2.7870519 2.57933 -1.2477306 0
7.7289081 0.90752709 -1.3660983 0
8.4941845 0.72219193 -1.2562177 0
8.9090776 0.66153681 -1.2260673 0
9.3355541 0.45279276 -1.2352393 0
9.591217 0.26284635 -1.2774899 0
9.9741497 0.24405134 -1.2902293 0
10.282309 0.16157711 -1.3486595 0
10.891445 0.03252995 -1.2456528 0
10.921017 -0.19361413 -1.2536137 0
11.496078 -0.33932579 -1.555266 0
12.838583 -0.6408726 -1.2025911 0
12.897964 -0.58519495 -1.2073853 0
17.497629 -2.2503171 -1.2797524 0
18.306797 -2.6053181 -1.3767332 0
19.238255 -2.7680168 -1.3134006 0
19.4091 -2.9567547 -1.2944824 0
-26.71316 12.371537 -0.96693087 0
-26.68013 12.128034 -0.95699692 0
-25.649748 11.946728 -1.0490198 0
-25.110588 11.762074 -0.87898326 0
-24.485664 11.573426 -0.89388108 0
-24.472469 11.359414 -0.88633871 0
-23.761192 11.336828 -0.80646878 0
-23.480347 11.211014 -0.9280265 0
-22.597048 10.96307 -1.1409479 0
-22.297348 10.833851 -0.98222584 0
-22.080168 10.770131 -0.90547478 0
-20.651606 10.286448 -1.1034125 0
-20.418846 10.272828 -1.0819191 0
-20.17 10.105786 -0.99858409 0
-19.677385 9.9440374 -1.1476271 0
-19.243258 9.8275948 -0.95607764 0
-18.441675 9.5565529 -1.0086871 0
-17.833273 9.3727713 -1.107426 0
-17.48473 9.3908548 -1.1335173 0
-16.504112 8.9207659 -0.91363144 0
-16.251638 8.8463926 -1.054671 0
-15.900945 8.7314444 -1.0414841 0
-15.310102 8.5230246 -1.0382203 0
-15.208993 8.4357615 -0.89888048 0
-14.708776 8.3290596 -1.0392226 0
-14.357917 8.2205391 -1.0997089 0
-13.87747 8.0733242 -0.96776485 0
-13.614951 7.9767685 -0.97033244 0
-13.168359 7.8298898 -1.0472078 0
-12.884674 7.6978335 -1.0066793 0
-12.451308 7.5686436 -0.99125785 0
-12.061593 7.4890251 -1.0090231 0
-11.783249 7.3147535 -1.0166371 0
-11.328677 7.2277822 -1.0443896 0
-10.909006 7.1000443 -0.97894651 0
-10.5726 6.9217496 -0.95697504 0
-10.139453 6.8738065 -0.90491831 0
-9.8199482 6.6931505 -0.99085337 0
-9.4198027 6.6502099 -0.93463278 0
-9.0146484 6.4520063 -0.95405275 0
-8.6585512 6.3389044 -0.94772243 0
-8.263154 6.2097206 -0.88383687 0
-7.8585095 6.1265221 -0.99236947 0
-7.6362081 5.9559345 -0.9932794 0
-7.002562 5.8771315 -0.98436862 0
-6.723763 5.7042789 -1.0034657 0
-6.4540739 5.4731808 -0.95401168 0
-6.0408573 5.4213667 -0.93735403 0
-5.626039 5.3749566 -1.0056891 0
-5.2227216 5.2527981 -0.98628408 0
-4.8492246 5.1297312 -1.0285312 0
-4.6428881 4.988102 -1.0632963 0
-4.0303388 4.9196405 -0.87670857 0
-3.8459697 4.6817684 -0.91748542 0
-2.8447299 4.3852034 -1.0401376 0
-2.6511974 4.3345523 -1.0644301 0
-2.1818626 4.2010312 -1.0352663 0
-1.8337342 4.1167526 -0.9886561 0
-1.4195578 3.9351516 -1.0243044 0
-1.1116693 3.8633223 -0.94308048 0
-0.63502336 3.7081885 -1.0013529 0
-0.27558926 3.5577111 -0.9367153 0
-0.010993093 3.5192127 -0.95324749 0
0.45396218 3.3369184 -1.0359478 0
1.4360741 3.0845094 -1.1316435 0
1.5352033 3.1336346 -1.1585498 0
3.4367781 2.3531246 -0.97627211 0
7.6221642 0.96219432 -1.1965013 0
8.4487591 0.68836772 -1.1125296 0
8.9287586 0.3386842 -1.181128 0
9.0996342 0.39428413 -1.0719762 0
9.5227165 0.41079104 -1.099829 0
9.9828176 0.12569797 -1.1274498 0
10.25251 0.12900293 -1.0752405 0
10.687955 0.081997037 -1.1816864 0
11.044396 -0.15159333 -0.93887967 0
11.480702 -0.28310621 -1.187675 0
11.843801 -0.40488994 -0.91676134 0
12.211216 -0.6098057 -1.0074228 0
12.682953 -0.6392709 -1.095709 0
12.979414 -0.86262739 -0.98612875 0
13.430289 -0.96336734 -0.86806613 0
14.176215 -1.2027215 -0.85653436 0
14.43484 -1.3833705 -0.88213396 0
15.776016 -1.6096793 -1.1480745 0
16.068741 -1.7557434 -1.136246 0
17.660107 -2.3655486 -1.1769303 0
17.733353 -2.5410085 -1.185475 0
-28.407757 12.74966 -0.45337987 0
-26.143219 11.922951 -0.48759705 0
-25.747135 11.934473 -0.57274568 0
-24.849461 11.591296 -0.63028365 0
-24.683544 11.652667 -0.62345409 0
-24.066771 11.605567 -0.66038269 0
-24.036621 11.330377 -0.65591013 0
-23.601788 11.32487 -0.67165965 0
-23.11145 11.1751 -0.78760988 0
-22.80566 10.894539 -0.73298973 0
-20.229971 9.9428902 -0.79489547 0
-15.095439 8.496603 -0.7179541 0
-14.826349 8.3028803 -0.72726333 0
-14.472592 8.2544756 -0.76877362 0
-14.004776 8.060997 -0.77564204 0
-13.355516 7.7077198 -0.79895127 0
-12.304339 7.715807 -0.68502229 0
-11.896853 7.5044346 -0.7916705 0
-11.831194 7.2963085 -0.78371894 0
-11.087667 7.3073959 -0.75568169 0
-10.935652 7.0930071 -0.74238515 0
-10.566216 6.9597712 -0.72663909 0
-10.23048 6.8181095 -0.74774528 0
-9.7470512 6.8094692 -0.78390616 0
-9.3763332 6.6050053 -0.77625817 0
-9.081996 6.419796 -0.78606123 0
-8.8259926 6.2933335 -0.79630208 0
-6.2533026 5.3676939 -0.58928537 0
-5.9819322 5.4786043 -0.56016731 0
-5.5777388 5.3785133 -0.60307658 0
-5.346025 5.083209 -0.62233961 0
-4.8461089 5.0936561 -0.63114572 0
-4.0189562 4.921093 -0.59749371 0
-3.8428111 4.7031593 -0.62697494 0
-3.4190874 4.4237213 -0.40309229 0
-2.1489165 4.1606703 -0.75706172 0
-1.8667661 4.1168022 -0.69647413 0
-1.4208227 3.9759469 -0.76101702 0
-1.0397626 3.8159575 -0.62879902 0
-0.54980624 3.6645665 -0.68567967 0
-0.18355665 3.4994035 -0.54141527 0
-0.050164551 3.5077591 -0.52463228 0
0.37530521 3.3328743 -0.53924781 0
0.87635672 3.1980081 -0.73174262 0
1.0622236 3.1320343 -0.41789025 0
1.6535978 2.9440012 -0.61431128 0
2.0164974 2.8896384 -0.43254876 0
2.3002315 2.7326822 -0.6342321 0
2.7619729 2.7324443 -0.40203089 0
10.456222 0.14240825 -0.59672058 0
10.559905 -0.082515836 -0.60813516 0
12.218194 -0.74623859 -0.6324749 0
13.833922 -0.98091447 -0.66358733 0
14.179729 -1.1841942 -0.63377184 0
15.361445 -1.7831279 -0.70252466 0
17.265339 -2.1243892 -0.50784582 0
-29.040821 12.982642 -0.38093677 0
-4.8241148 5.0717955 -0.35122609 0
-4.4427805 5.0695634 -0.34636253 0
-4.0850868 4.8564997 -0.36385947 0
-3.7568262 4.6395707 -0.38298383 0
-3.5151916 4.5107455 -0.39491788 0
-0.16437885 3.4191689 -0.3754445 0
-0.062829643 3.5937691 -0.38146108 0
0.48093638 3.3233118 -0.37848184 0
0.9738524 3.0334187 -0.38080665 0
1.1853185 3.1056089 -0.37130356 0
1.5851799 2.9503832 -0.36583757 0
1.9122559 2.8615618 -0.36261573 0
2.4745843 2.5620949 -0.35585627 0
2.6432495 2.6208878 -0.37551612 0
2.9664092 2.5169721 -0.36788937 0
3.4718897 2.3392107 -0.36442709 0
4.0161061 1.9804279 -0.36574534 0
4.1075873 2.1626694 -0.37074953 0
4.7609181 1.9901055 -0.3222242 0
4.8914413 1.7797091 -0.35312551 0
-26.756239 12.35113 0.26147929 0
-26.678871 12.177831 0.26331228 0
13.006417 -1.1541294 -2.2454889 0
13.136989 -1.1017607 -2.2579989 0
6.9092407 0.62265551 -1.8695784 0
7.1053185 0.73288596 -1.8736377 0
7.6562462 0.53083193 -1.7684915 0
7.8821626 0.50861752 -1.7586976 0
8.4828806 0.27026141 -1.8776929 0
8.6635962 0.22343004 -1.8348358 0
9.5139971 -0.19851482 -1.6930035 0
-21.187157 10.017074 -1.2326292 0
-20.950331 10.066196 -1.2103654 0
-19.328373 9.5631895 -1.2363958 0
-17.442892 8.8061914 -1.2248381 0
-17.164358 8.7689686 -1.2108934 0
-16.178318 8.5326586 -1.2323997 0
-15.526106 8.2809553 -1.2616526 0
-15.316529 7.9953671 -1.2299271 0
-14.248333 7.9367218 -1.3047507 0
-14.164268 7.7490721 -1.2887827 0
-1.8241571 3.697402 -1.2057807 0
-1.5784944 3.6266088 -1.2223891 0
-0.25607291 3.162065 -1.211514 0
-0.19875589 3.2076788 -1.2269408 0
0.65234345 2.8677888 -1.206499 0
1.3742362 2.5461221 -1.3686035 0
1.6676255 2.3160644 -1.2356623 0
6.1223712 0.93215787 -1.5254638 0
6.3578019 1.0575424 -1.5527865 0
7.6445031 0.52923572 -1.3861943 0
7.9086728 0.38411796 -1.3614901 0
8.3169212 0.27456701 -1.2874049 0
8.6774845 0.14429176 -1.2965196 0
9.4417915 -0.042374492 -1.2741553 0
9.862566 -0.19455588 -1.4418122 0
10.260397 -0.33471668 -1.2728606 0
10.545702 -0.41394603 -1.3257159 0
11.575132 -0.5955795 -1.5757329 0
11.582935 -0.68371737 -1.5811862 0
17.186808 -2.6534958 -1.3438559 0
17.296312 -2.498096 -1.3438629 0
18.175604 -2.881433 -1.348011 0
-26.865534 11.778341 -0.95792955 0
-26.761961 11.933263 -0.95608377 0
-25.637531 11.712817 -1.0416387 0
-25.628048 11.507336 -1.0354486 0
-25.078318 11.329318 -0.86434078 0
-24.46657 11.11446 -0.87858725 0
-24.145189 10.911157 -0.81838411 0
-23.475513 10.798734 -0.9197309 0
-22.663532 10.579842 -1.1372279 0
-22.384808 10.454991 -1.1289793 0
-22.166956 10.361701 -0.91286153 0
-20.78689 9.9699278 -1.1081854 0
-20.564816 9.7327604 -1.0485827 0
-20.263872 9.8634033 -0.94701642 0
-19.650007 9.6900339 -1.141134 0
-19.404097 9.4399233 -1.0121782 0
-18.531961 9.2611437 -1.0100019 0
-18.313719 8.985219 -0.97950178 0
-17.951632 9.0195751 -1.135013 0
-17.679379 8.7570677 -1.0360432 0
-17.067318 8.5577831 -1.1941671 0
-16.521427 8.6670485 -0.89882785 0
-16.435225 8.4542875 -0.97470748 0
-15.925801 8.3140688 -0.99784398 0
-15.320935 8.1284256 -0.99958652 0
-14.736689 7.9450665 -1.0464164 0
-14.667036 7.7658386 -1.0802699 0
-14.093378 7.7116165 -0.99299294 0
-13.719074 7.5886445 -0.95036048 0
-13.291579 7.4537458 -1.0470017 0
-13.05375 7.3651047 -1.0062147 0
-12.552317 7.2115865 -0.95559418 0
-12.156852 7.0548935 -1.0039411 0
-11.794636 6.9483786 -0.96672207 0
-11.465973 6.8407784 -1.0251697 0
-11.112975 6.7158146 -0.99018884 0
-10.650474 6.5804968 -0.95010883 0
-10.343096 6.4438028 -0.95026183 0
-9.924139 6.3575945 -0.93878776 0
-9.6403952 6.2116089 -0.94453627 0
-9.0415249 6.0762014 -0.97762966 0
-8.7586613 5.9558344 -0.9515518 0
-8.4597244 5.7775784 -0.87712705 0
-8.0157967 5.6709809 -1.0164549 0
-7.6683288 5.6003561 -1.0270818 0
-7.0885468 5.5097623 -0.97526717 0
-6.8500714 5.3669891 -0.97276157 0
-6.5486422 5.2335873 -0.98270452 0
-6.0718837 5.1566854 -0.96927196 0
-5.748611 4.9709864 -1.0231149 0
-5.3592458 4.7837801 -1.0641277 0
-5.0514402 4.6946263 -1.0080004 0
-3.7344449 4.4791827 -0.92838693 0
-3.4371309 4.1231647 -1.0983881 0
-2.986536 4.1007199 -1.079651 0
-2.8365955 3.9565139 -1.0326154 0
-2.3369839 3.8116469 -1.0091904 0
-1.8613166 3.6571784 -1.0729315 0
-1.5672988 3.5814757 -0.94908249 0
-1.1966535 3.448318 -0.96999389 0
-0.77305543 3.3373981 -0.93521738 0
